ply
format ascii 1.0
element vertex 1632
property float x
property float y
property float z
property uchar red
property uchar green
property uchar blue
property uchar alpha
end_header
-3.09 4.57 -2.85 67 70 79 255
-3.05 4.82 -3.34 66 67 78 255
-3.02 4.93 -3.55 64 65 74 255
-2.99 4.96 -3.51 61 61 72 255
-2.94 5.01 -3.50 72 72 84 255
-2.98 4.95 -3.49 72 72 84 255
-2.95 5.02 -3.55 70 70 82 255
-3.06 4.83 -3.43 70 70 82 255
-3.09 4.86 -3.59 70 73 82 255
-2.21 6.07 -3.95 82 82 94 255
-2.23 6.06 -3.98 76 76 88 255
-2.15 6.09 -3.85 74 74 86 255
-2.06 6.24 -3.91 75 75 87 255
-2.07 6.22 -3.88 77 77 89 255
-2.09 6.19 -3.89 83 83 95 255
-1.45 6.23 -2.64 74 74 86 255
-1.37 6.33 -2.66 71 71 83 255
-1.54 6.10 -2.53 65 65 77 255
-1.43 6.33 -2.83 76 76 88 255
-1.52 6.17 -2.65 77 77 89 255
-1.36 6.37 -2.75 75 75 87 255
-1.53 6.18 -2.69 76 76 88 255
-1.25 6.45 -2.70 84 84 96 255
-1.41 6.26 -2.61 68 68 80 255
-1.53 6.13 -2.58 69 69 81 255
-2.84 5.18 -3.64 67 67 79 255
-2.99 5.04 -3.77 64 67 76 255
-3.00 4.99 -3.64 60 63 72 255
-3.02 5.01 -3.79 68 71 80 255
-2.93 5.08 -3.67 61 64 73 255
-3.01 5.00 -3.72 64 67 76 255
-2.80 5.39 -4.05 61 64 73 255
-2.86 5.22 -3.81 65 68 77 255
-2.85 5.20 -3.74 63 64 75 255
-2.91 5.18 -3.88 67 70 79 255
-2.82 5.21 -3.65 69 69 81 255
-2.81 5.33 -3.91 67 69 81 255
-2.81 5.25 -3.72 67 67 79 255
-2.90 5.15 -3.75 67 70 79 255
-2.89 5.19 -3.81 65 68 77 255
-2.97 5.10 -3.86 67 70 79 255
-2.86 5.32 -4.04 67 70 79 255
-2.82 5.24 -3.72 69 69 81 255
-3.70 3.65 -1.37 0 3 13 255
-3.60 3.70 -1.37 0 7 16 255
-3.51 3.77 -1.34 0 7 17 255
-3.69 3.64 -1.39 0 5 13 255
-3.69 3.71 -1.27 0 2 11 255
-3.67 3.62 -1.43 0 8 15 255
-3.71 3.75 -1.19 0 2 11 255
-3.55 3.71 -1.39 2 9 19 255
-3.43 3.78 -1.38 1 8 18 255
-3.50 3.66 -1.52 4 11 21 255
-3.37 3.80 -1.41 8 13 24 255
-3.46 3.77 -1.38 0 6 16 255
-3.51 3.68 -1.48 5 11 21 255
-3.38 3.81 -1.37 2 9 19 255
-3.43 3.70 -1.51 3 10 20 255
-3.50 3.63 -1.58 4 11 21 255
-3.46 3.67 -1.54 5 12 22 255
-3.60 3.57 -1.58 2 11 20 255
-3.66 3.47 -1.70 5 12 22 255
-1.43 5.97 -1.98 72 72 84 255
-1.53 5.87 -1.93 76 76 88 255
-1.49 5.88 -1.88 72 72 84 255
-1.52 5.83 -1.84 72 72 84 255
-1.33 5.89 -1.64 74 74 86 255
-1.46 5.95 -1.98 74 74 86 255
-1.55 5.83 -1.89 78 78 90 255
-1.45 5.90 -1.87 72 72 84 255
-1.36 5.87 -1.66 76 76 88 255
-4.13 3.61 -1.09 8 12 20 255
-4.09 3.66 -1.04 9 13 22 255
-4.15 3.64 -1.04 11 14 21 255
-3.97 3.68 -1.10 5 10 14 255
-4.07 3.67 -1.04 9 14 21 255
-3.91 3.71 -1.09 0 3 10 255
-4.11 3.68 -1.00 10 13 20 255
-4.17 3.69 -0.95 8 11 18 255
-1.92 5.49 -1.83 77 77 89 255
-1.75 5.71 -2.01 68 68 80 255
-1.78 5.63 -1.88 75 75 87 255
-1.84 5.67 -2.08 72 72 84 255
-1.73 5.66 -1.84 78 78 90 255
-1.95 5.47 -1.83 80 80 92 255
-1.84 5.68 -2.12 73 73 85 255
-1.96 5.45 -1.81 76 76 88 255
-1.81 5.68 -2.05 76 76 88 255
-1.83 5.57 -1.83 75 75 87 255
-1.73 5.72 -2.00 69 69 81 255
-1.83 5.69 -2.12 71 71 83 255
-3.15 4.84 -3.79 55 58 67 255
-3.12 4.89 -3.79 62 65 74 255
-3.25 4.69 -3.70 62 65 74 255
-3.26 4.71 -3.80 65 68 77 255
-3.11 4.89 -3.79 64 67 76 255
-3.22 4.77 -3.82 65 68 77 255
-3.13 4.84 -3.72 65 68 77 255
-3.20 4.78 -3.80 61 64 73 255
-2.85 4.87 -2.79 64 64 76 255
-2.75 5.00 -2.86 67 67 79 255
-2.69 5.05 -2.81 63 63 72 255
-2.74 5.03 -2.91 65 65 77 255
-2.53 5.24 -2.80 64 64 76 255
-2.70 5.09 -2.95 66 66 78 255
-2.61 5.17 -2.88 57 57 69 255
-2.67 5.09 -2.81 65 65 76 255
-2.60 5.18 -2.86 58 58 70 255
-2.71 5.07 -2.93 68 68 80 255
-2.66 5.16 -3.05 68 68 80 255
-2.70 5.07 -2.89 63 63 75 255
-1.05 5.08 -0.67 60 66 80 255
-1.13 4.98 -0.62 28 34 46 255
-1.19 4.91 -0.59 5 12 20 255
-1.03 4.96 -0.55 15 21 32 255
-1.06 5.02 -0.62 44 50 62 255
-1.30 4.90 -0.63 6 11 22 255
-1.06 4.94 -0.54 11 18 28 255
-2.26 5.15 -1.79 77 77 89 255
-2.41 4.93 -1.67 78 80 93 255
-2.29 5.07 -1.70 81 81 93 255
-2.39 4.99 -1.74 82 82 94 255
-2.44 5.05 -1.94 77 77 89 255
-2.39 4.94 -1.65 79 81 94 255
-2.42 4.95 -1.73 79 79 90 255
-2.24 5.21 -1.87 72 72 84 255
-2.35 5.06 -1.78 81 81 93 255
-2.29 5.07 -1.70 80 80 92 255
-2.07 5.34 -1.77 74 74 86 255
-2.20 5.17 -1.72 78 78 90 255
-2.31 5.06 -1.73 81 81 93 255
-2.23 5.12 -1.68 85 85 97 255
-2.09 5.12 -1.46 83 85 98 255
-2.11 5.28 -1.74 76 76 88 255
-2.10 5.20 -1.59 83 85 98 255
-2.28 5.00 -1.57 82 84 97 255
-2.35 4.97 -1.63 86 88 101 255
-2.25 5.05 -1.60 78 80 93 255
-2.10 5.14 -1.50 84 86 99 255
-2.16 5.19 -1.67 79 79 91 255
-2.12 5.17 -1.58 75 77 90 255
-2.15 5.10 -1.52 83 85 98 255
-3.17 4.17 -0.88 0 1 9 255
-3.30 4.11 -0.88 0 0 8 255
-3.04 4.31 -0.72 3 7 16 255
-3.03 4.29 -0.79 0 3 12 255
-3.13 4.20 -0.86 0 1 10 255
-2.97 4.28 -0.85 0 0 9 255
-3.03 4.25 -0.86 0 0 10 255
-3.05 4.18 -0.96 0 2 11 255
-2.24 4.56 1.14 36 42 54 255
-2.15 4.58 1.04 11 19 30 255
-2.23 4.55 1.05 11 18 30 255
-2.24 4.57 1.21 53 57 69 255
-2.13 4.56 0.92 7 13 25 255
-2.02 4.64 1.03 8 16 27 255
-2.12 4.62 1.16 39 45 57 255
-1.97 4.69 1.11 32 38 50 255
-2.02 4.65 1.05 12 20 31 255
-2.20 4.60 1.21 48 52 64 255
-2.05 4.62 1.00 7 15 26 255
-3.34 4.36 0.36 81 83 95 255
-3.36 4.43 0.31 74 76 88 255
-3.29 4.36 0.36 83 85 97 255
-3.33 4.33 0.38 77 79 91 255
-3.29 4.52 0.26 77 79 91 255
-3.19 4.59 0.22 79 83 95 255
-3.35 4.48 0.27 71 73 85 255
-3.14 4.51 0.29 71 77 89 255
-3.01 4.58 0.23 70 73 88 255
-2.93 4.53 0.26 71 74 91 255
-3.03 4.54 0.27 64 67 82 255
-3.09 4.66 0.17 76 79 91 255
-3.10 4.50 0.31 67 71 84 255
-2.95 4.41 -1.95 77 77 89 255
-2.99 4.42 -2.10 74 74 86 255
-3.05 4.22 -1.96 75 77 89 255
-3.04 4.29 -2.07 76 76 88 255
-3.00 4.40 -2.10 73 73 85 255
-2.98 4.37 -2.00 75 75 87 255
-2.94 4.51 0.28 75 78 94 255
-3.02 4.50 0.29 69 72 87 255
-2.54 4.43 0.28 67 69 81 255
-2.70 4.55 0.24 73 74 92 255
-2.62 4.47 0.27 70 72 87 255
-2.63 4.48 0.26 70 72 87 255
-2.56 4.55 0.24 68 71 86 255
-2.57 4.59 0.23 78 81 96 255
-2.68 4.57 0.23 73 76 93 255
-2.77 4.53 0.25 77 79 96 255
-2.35 4.56 0.24 74 77 92 255
-2.11 4.62 0.25 85 90 101 255
-2.25 4.51 0.27 65 69 81 255
-2.23 4.50 0.28 59 63 75 255
-2.10 4.63 0.25 82 87 98 255
-2.41 4.43 0.28 63 67 80 255
-2.25 4.62 0.23 81 85 97 255
-2.08 4.61 0.26 76 82 94 255
-3.18 4.31 0.37 62 64 77 255
-3.13 4.41 0.34 70 74 86 255
-3.12 4.43 0.33 70 74 86 255
-2.78 4.31 0.30 45 47 59 255
-2.77 4.31 0.30 46 48 60 255
-2.81 4.27 0.31 34 38 49 255
-2.82 4.44 0.27 73 74 89 255
-2.71 4.42 0.28 73 72 86 255
-2.48 4.33 0.31 40 43 55 255
-2.54 4.31 0.31 39 39 51 255
-2.73 4.27 0.31 36 38 50 255
-2.67 4.36 0.29 49 48 62 255
-3.32 3.67 1.36 62 64 77 255
-3.32 3.67 1.28 59 61 73 255
-3.33 3.66 1.33 63 65 78 255
-3.33 3.66 1.34 63 65 78 255
-3.13 3.81 1.65 62 64 77 255
-3.05 3.87 1.70 57 59 71 255
-3.22 3.74 1.58 56 56 68 255
-3.12 3.78 1.76 65 65 77 255
-3.22 3.70 1.71 60 60 72 255
-2.93 4.03 1.61 62 64 77 255
-3.21 3.68 1.77 66 66 78 255
-3.04 3.90 1.66 59 61 74 255
-3.20 3.79 1.50 64 63 75 255
-3.18 3.73 1.72 62 62 74 255
-3.20 3.71 1.73 61 61 73 255
-3.44 3.54 1.34 58 62 73 255
-3.35 3.62 1.43 58 60 72 255
-3.29 3.70 1.46 68 68 80 255
-3.42 3.56 1.26 48 52 62 255
-3.44 3.54 1.28 56 60 70 255
-3.26 3.93 -2.02 66 66 76 255
-3.21 3.93 -1.90 55 57 69 255
-3.22 3.95 -1.96 63 63 75 255
-3.20 4.01 -2.02 67 67 79 255
-3.21 3.98 -1.98 64 64 76 255
-3.26 3.92 -2.03 66 66 76 255
-3.27 3.88 -1.97 54 57 66 255
-3.30 3.94 -2.16 72 72 82 255
-3.28 3.87 -1.99 58 61 70 255
-3.25 4.02 -2.16 70 70 78 255
-2.94 4.44 -0.60 6 11 20 255
-2.99 4.38 -0.66 7 11 20 255
-2.99 4.39 -0.64 6 10 19 255
-2.89 4.43 -0.65 3 10 18 255
-2.82 4.48 -0.63 3 12 21 255
-2.89 4.45 -0.62 2 9 17 255
-2.90 4.45 -0.61 2 9 17 255
-2.52 4.73 -1.55 75 76 88 255
-2.62 4.59 -1.51 70 72 84 255
-2.56 4.70 -1.57 72 74 86 255
-2.63 4.58 -1.52 71 73 85 255
-2.64 4.52 -1.43 55 58 70 255
-3.60 4.34 -0.35 25 28 33 255
-3.65 4.38 -0.22 29 32 42 255
-3.48 4.49 -0.23 26 29 36 255
-3.60 4.37 -0.30 24 27 34 255
-2.94 4.54 -2.23 78 78 90 255
-2.78 4.74 -2.20 71 71 83 255
-2.75 4.80 -2.24 73 73 85 255
-2.75 4.82 -2.28 70 70 82 255
-2.82 4.67 -2.16 74 74 86 255
-2.71 4.78 -2.08 74 74 86 255
-2.85 4.68 -2.27 63 63 75 255
-2.74 4.73 -2.05 69 69 81 255
-2.85 4.61 -2.11 76 76 88 255
-2.82 4.70 -2.22 71 71 83 255
-2.75 4.74 -2.11 69 69 81 255
-2.72 4.88 -2.31 76 76 88 255
-3.19 3.95 0.60 37 39 51 255
-3.20 3.95 0.58 35 37 49 255
-3.09 3.93 0.64 60 62 74 255
-3.21 3.92 0.65 45 48 57 255
-3.28 4.00 0.54 27 29 41 255
-3.24 3.97 0.53 34 36 48 255
-3.34 3.93 0.61 21 24 33 255
-3.33 4.01 0.56 29 31 43 255
-3.41 3.56 1.17 10 19 26 255
-3.42 3.51 1.04 51 53 65 255
-3.51 3.39 1.09 50 54 61 255
-3.46 3.47 1.10 39 42 54 255
-3.47 3.48 1.15 22 26 35 255
-1.68 4.96 0.22 72 78 91 255
-1.56 4.88 0.31 96 102 114 255
-1.76 4.93 0.22 73 78 93 255
-3.04 3.97 0.60 51 53 65 255
-3.08 4.00 0.53 39 41 52 255
-3.00 4.03 0.51 45 47 59 255
-3.34 3.80 0.78 54 54 66 255
-3.38 3.83 0.75 52 52 64 255
-3.24 3.77 0.82 62 62 74 255
-3.09 3.91 0.69 60 62 74 255
-3.42 3.85 0.72 47 47 57 255
-3.21 3.78 0.82 63 63 75 255
-1.71 4.78 0.29 96 102 115 255
-1.68 4.83 0.28 97 103 115 255
-1.76 4.92 0.22 75 81 95 255
-2.22 4.41 0.41 32 36 47 255
-2.26 4.39 0.39 35 39 50 255
-2.29 4.42 0.32 49 53 65 255
-2.15 4.48 0.37 41 45 56 255
-2.09 4.57 0.29 69 74 85 255
-2.14 4.48 0.38 32 36 47 255
-2.47 4.44 0.96 6 15 25 255
-2.53 4.44 1.06 6 15 25 255
-2.11 4.45 1.54 48 57 74 255
-1.95 4.55 1.43 53 60 76 255
-2.14 4.55 1.35 61 64 79 255
-2.19 4.49 1.43 57 60 77 255
-2.21 4.50 1.40 60 63 79 255
-2.11 4.53 1.41 58 61 78 255
-1.83 4.53 1.51 47 55 72 255
-1.84 4.53 1.52 44 53 70 255
-1.89 4.52 1.50 41 50 65 255
-2.17 4.51 1.41 59 62 79 255
-2.08 4.42 1.60 41 53 68 255
-2.20 4.49 1.42 58 61 78 255
-1.78 4.56 1.49 48 57 74 255
-3.15 3.87 1.03 22 26 35 255
-3.17 3.86 1.04 22 26 35 255
-2.67 4.20 0.68 52 56 68 255
-2.62 4.22 0.69 41 45 56 255
-2.91 4.10 0.44 54 56 68 255
-3.29 3.69 1.09 21 25 34 255
-1.36 4.81 0.85 20 26 38 255
-1.45 4.81 0.86 16 22 34 255
-1.31 4.81 0.77 49 55 67 255
-1.41 4.80 0.67 61 67 81 255
-1.41 4.80 0.69 56 62 76 255
-1.28 4.82 0.83 28 34 46 255
-1.43 4.82 0.99 0 6 20 255
-1.38 4.82 0.93 2 8 22 255
-1.65 4.72 0.74 36 42 56 255
-1.75 4.62 0.71 32 38 50 255
-1.68 4.65 0.63 39 45 59 255
-1.69 4.66 0.67 41 47 61 255
-1.71 4.64 0.69 34 40 52 255
-2.43 4.31 0.67 34 38 49 255
-2.50 4.28 0.55 60 64 75 255
-2.46 4.29 0.66 34 39 50 255
-2.47 4.30 0.55 52 56 67 255
-2.57 4.24 0.50 56 58 71 255
-1.54 4.88 0.32 92 97 111 255
-1.35 4.68 1.35 54 64 76 255
-1.37 4.60 1.48 58 65 83 255
-1.48 4.60 1.48 51 60 77 255
-1.35 4.64 1.41 54 65 77 255
-1.48 4.65 1.40 56 65 82 255
-1.29 4.64 1.41 50 62 76 255
-1.28 4.63 1.42 50 62 76 255
-2.40 4.32 1.58 46 49 64 255
-2.37 4.43 1.42 62 65 82 255
-2.30 4.39 1.54 51 54 71 255
-2.47 4.31 1.55 47 50 65 255
-2.28 4.35 1.60 49 54 71 255
-2.61 4.29 1.50 62 64 77 255
-2.26 4.34 1.64 48 54 70 255
-2.57 4.24 1.59 62 64 77 255
-2.32 4.45 1.42 65 68 85 255
-2.66 4.22 1.57 57 59 72 255
-2.55 4.32 1.48 66 68 83 255
-2.37 4.43 1.42 62 65 81 255
-2.50 4.28 1.57 53 55 70 255
-2.65 4.26 1.51 65 67 80 255
-2.37 4.33 1.59 47 49 64 255
-2.47 4.31 1.55 48 51 66 255
-2.34 4.35 1.56 49 52 68 255
-1.66 4.71 0.34 68 72 84 255
-1.60 4.78 0.36 75 78 93 255
-1.31 4.97 0.39 54 60 74 255
-2.63 4.33 1.30 65 67 80 255
-2.70 4.31 1.20 51 55 66 255
-2.68 4.34 1.15 35 42 50 255
-2.62 4.38 1.14 30 37 47 255
-2.60 4.32 1.43 60 62 75 255
-2.55 4.37 1.35 63 65 78 255
-2.54 4.37 1.37 57 59 72 255
-2.56 4.39 1.21 54 58 70 255
-2.55 4.37 1.38 57 59 72 255
-2.83 4.14 1.58 62 64 77 255
-2.67 4.29 1.37 70 72 85 255
-2.68 4.27 1.42 70 72 85 255
-2.32 4.53 1.28 64 68 80 255
-2.49 4.42 1.30 64 68 80 255
-2.75 4.16 0.82 40 42 54 255
-2.69 4.19 0.73 59 63 74 255
-1.80 4.54 0.53 31 35 46 255
-1.75 4.63 0.40 56 60 71 255
-1.53 4.77 1.16 37 45 58 255
-1.45 4.76 1.18 37 45 58 255
-1.44 4.71 1.28 61 69 85 255
-1.53 4.66 1.36 55 64 81 255
-1.62 4.64 1.39 53 62 77 255
-1.50 4.75 1.19 44 51 67 255
-1.39 4.72 1.27 59 68 83 255
-2.50 4.45 1.14 38 43 54 255
-2.48 4.46 1.17 47 52 63 255
-2.30 4.56 1.24 57 61 73 255
-2.40 4.51 1.19 51 55 67 255
-2.28 4.56 1.23 56 60 72 255
-2.34 4.53 1.10 20 27 38 255
-2.36 4.51 1.00 4 13 22 255
-2.31 4.51 0.94 7 16 25 255
-2.52 4.31 0.77 29 36 45 255
-3.28 3.70 0.91 64 63 73 255
-3.50 3.44 1.20 26 30 39 255
-3.48 3.47 1.24 33 37 46 255
-3.56 3.35 1.33 56 58 70 255
-3.54 3.38 1.33 58 60 72 255
-2.83 4.09 0.72 57 59 72 255
-2.83 4.10 0.76 56 58 71 255
-2.75 4.14 0.69 62 64 77 255
-2.72 4.16 0.71 59 63 75 255
-2.86 4.07 0.74 63 65 78 255
-2.97 3.99 0.71 70 72 84 255
-1.82 4.66 1.30 54 63 78 255
-1.93 4.71 1.17 46 49 64 255
-2.04 4.58 1.34 58 61 76 255
-2.05 4.63 1.24 56 60 72 255
-1.76 4.62 1.39 57 66 81 255
-2.05 4.66 1.20 50 55 67 255
-2.19 4.59 1.27 58 64 76 255
-1.83 4.61 1.38 49 58 73 255
-2.22 4.58 1.26 60 66 79 255
-1.87 4.67 1.25 53 60 73 255
-1.76 4.75 1.03 16 20 34 255
-1.82 4.75 1.09 23 26 41 255
-1.70 4.75 0.97 6 9 24 255
-1.62 4.77 0.97 5 8 23 255
-1.46 4.83 0.55 55 61 73 255
-1.46 4.85 0.52 51 57 70 255
-1.46 4.82 0.56 54 60 73 255
-2.77 4.25 1.25 54 58 67 255
-2.71 4.31 1.17 47 54 62 255
-2.78 4.27 1.15 30 37 45 255
-2.83 4.15 1.52 69 71 83 255
-2.81 4.19 1.41 62 64 76 255
-2.85 4.15 1.46 66 68 80 255
-2.85 4.14 1.49 66 68 80 255
-2.79 4.26 1.16 38 45 53 255
-2.42 4.49 0.99 5 13 24 255
-2.43 4.42 0.89 8 15 25 255
-1.76 4.70 0.88 5 11 23 255
-1.88 4.66 0.90 8 14 26 255
-1.85 4.73 1.05 17 21 33 255
-1.91 4.67 0.96 5 11 23 255
-1.61 4.76 0.84 10 16 30 255
-1.55 4.79 0.93 7 12 25 255
-1.55 4.80 1.00 6 11 25 255
-1.59 4.78 0.94 10 13 28 255
-1.55 4.79 0.89 9 15 27 255
-1.53 4.79 0.76 44 50 64 255
-3.30 3.63 1.63 60 60 72 255
-3.28 3.67 1.57 59 59 71 255
-3.34 3.57 1.64 57 57 69 255
-3.30 3.66 1.54 58 58 70 255
-3.51 3.42 1.47 57 59 71 255
-3.46 3.46 1.55 57 59 71 255
-3.46 3.45 1.56 57 59 71 255
-3.27 3.67 1.60 61 61 73 255
-2.73 4.23 0.96 11 20 27 255
-2.70 4.26 0.96 10 19 26 255
-2.67 4.33 1.07 10 19 26 255
-2.68 4.28 0.97 9 18 25 255
-2.31 4.35 0.52 31 35 45 255
-2.27 4.36 0.54 28 32 43 255
-2.13 4.39 0.58 30 34 45 255
-2.17 4.38 0.59 19 23 34 255
-2.42 4.32 0.50 38 42 53 255
-2.93 4.04 1.55 61 63 76 255
-2.95 4.02 1.53 63 65 78 255
-3.13 3.86 1.41 71 71 83 255
-3.12 3.88 1.36 69 71 83 255
-3.02 3.96 1.54 65 67 80 255
-3.02 3.97 1.49 63 65 78 255
-3.11 3.88 1.48 58 60 73 255
-3.08 3.92 1.37 72 74 86 255
-3.25 3.74 0.93 62 62 72 255
-3.21 3.79 0.97 62 65 73 255
-2.89 4.30 -1.68 63 67 78 255
-2.99 4.15 -1.64 47 51 60 255
-2.92 4.26 -1.71 58 63 72 255
-2.97 4.22 -1.76 66 75 84 255
-2.96 4.16 -1.60 49 53 62 255
-2.55 4.29 0.77 32 39 49 255
-2.96 4.09 1.32 58 60 72 255
-3.00 4.09 1.19 47 51 60 255
-3.03 4.05 1.23 58 62 73 255
-3.01 4.05 1.31 62 64 77 255
-2.98 4.08 1.28 61 63 75 255
-3.26 3.75 1.06 19 23 32 255
-2.58 4.25 0.70 39 43 54 255
-3.15 3.86 0.93 62 64 76 255
-3.09 3.90 0.79 60 62 74 255
-3.24 3.75 0.90 65 65 75 255
-3.14 3.85 0.85 63 65 77 255
-3.05 3.92 0.68 64 66 78 255
-2.58 4.33 0.91 11 19 28 255
-2.61 4.30 0.87 28 32 41 255
-3.05 4.03 1.11 18 22 31 255
-3.05 4.03 1.16 25 29 38 255
-3.07 3.98 1.01 25 29 38 255
-3.15 3.90 1.22 53 58 65 255
-2.94 4.06 1.48 65 67 80 255
-3.10 3.97 1.25 62 64 74 255
-2.89 4.08 1.56 65 67 79 255
-3.07 3.96 1.33 64 66 78 255
-2.85 4.20 1.11 25 32 40 255
-2.75 4.28 1.09 14 22 29 255
-2.79 4.19 0.98 9 17 24 255
-2.78 4.25 1.09 14 21 29 255
-2.73 4.29 1.09 15 22 30 255
-1.90 4.63 0.85 9 15 27 255
-1.86 4.62 0.81 13 19 31 255
-1.80 4.66 0.83 7 13 25 255
-1.86 4.56 0.68 25 29 41 255
-1.85 4.66 0.86 7 13 25 255
-3.46 3.98 0.62 48 49 60 255
-3.63 3.95 0.63 68 70 83 255
-3.51 3.93 0.65 59 58 72 255
-3.47 3.99 0.61 43 45 57 255
-3.44 4.11 0.52 43 45 57 255
-3.31 3.64 1.05 44 48 57 255
-2.99 4.08 1.09 10 14 23 255
-2.92 4.11 1.04 12 17 26 255
-2.89 4.10 0.96 26 28 39 255
-2.97 4.11 1.11 16 20 29 255
-1.76 4.68 1.28 55 64 79 255
-1.70 4.78 1.10 28 34 50 255
-1.73 4.71 1.22 43 52 67 255
-1.65 4.78 1.12 25 32 48 255
-1.65 4.69 1.29 53 62 77 255
-1.70 4.63 1.40 54 63 78 255
-1.63 4.66 1.34 49 58 73 255
-1.68 4.65 1.35 52 61 76 255
-1.69 4.60 1.44 56 65 82 255
-3.18 3.86 1.09 14 21 29 255
-3.18 3.86 1.20 41 46 53 255
-3.34 3.63 1.14 33 39 47 255
-3.33 3.63 1.11 21 28 36 255
-3.28 3.71 1.19 36 39 48 255
-2.07 4.52 0.78 13 18 29 255
-2.09 4.55 0.85 11 15 27 255
-2.11 4.41 0.60 27 31 42 255
-2.10 4.48 0.73 16 20 31 255
-2.20 4.50 0.82 14 18 29 255
-1.69 4.67 0.38 58 61 74 255
-2.35 4.36 0.70 29 33 44 255
-2.31 4.40 0.74 18 22 33 255
-2.24 4.45 0.77 18 22 33 255
-2.33 4.39 0.72 22 26 37 255
-2.29 4.38 0.68 25 29 40 255
-3.06 3.96 0.94 49 51 63 255
-2.99 4.00 0.90 50 52 64 255
-3.00 4.01 0.94 39 41 53 255
-3.04 3.96 0.86 61 63 75 255
-3.05 3.93 0.74 61 63 75 255
-1.98 5.57 -2.14 70 70 82 255
-2.10 5.41 -2.01 66 66 78 255
-2.11 5.38 -1.97 74 74 86 255
-1.89 5.68 -2.23 68 71 80 255
-1.95 5.55 -2.04 73 73 85 255
-2.15 5.43 -2.20 72 72 84 255
-2.13 5.43 -2.14 75 75 87 255
-1.87 5.70 -2.22 68 68 78 255
-2.18 5.40 -2.18 64 64 76 255
-2.05 5.48 -2.09 64 64 76 255
-2.00 5.47 -1.96 76 76 88 255
-2.04 5.57 -2.28 67 67 79 255
-2.22 5.42 -2.31 63 63 75 255
-1.90 5.62 -2.10 70 70 82 255
-2.06 5.38 -1.85 77 77 89 255
-2.07 5.39 -1.90 77 77 89 255
-2.06 4.42 0.58 22 26 37 255
-1.85 4.54 0.64 24 28 40 255
-2.04 4.45 0.62 21 25 36 255
-1.98 4.54 0.75 15 19 31 255
-1.98 4.45 0.59 20 24 35 255
-1.84 4.51 0.57 28 32 43 255
-3.34 3.61 0.99 51 51 63 255
-2.45 4.36 0.81 27 33 42 255
-2.48 4.38 0.89 11 19 28 255
-2.38 4.44 0.88 10 17 27 255
-1.78 4.78 0.27 93 99 113 255
-1.87 4.66 0.29 75 81 93 255
-1.79 4.84 0.24 82 88 102 255
-1.87 4.70 0.27 87 93 107 255
-1.71 4.70 0.32 79 85 97 255
-1.96 4.47 0.54 24 28 39 255
-1.99 4.44 0.57 23 27 38 255
-1.94 4.53 0.47 33 37 48 255
-2.06 4.46 0.50 28 32 43 255
-1.97 4.53 0.44 34 38 49 255
-1.46 4.88 0.46 52 58 71 255
-2.58 4.24 0.48 52 55 67 255
-2.77 4.17 0.47 55 57 70 255
-2.64 4.22 0.48 60 62 75 255
3.64 -2.74 0.87 102 69 50 255
3.28 -2.47 0.80 97 65 44 255
3.30 -2.52 0.81 97 65 44 255
3.49 -2.00 0.78 103 67 43 255
3.30 -2.59 0.81 96 65 44 255
3.37 -2.27 0.79 98 65 46 255
3.24 -2.52 0.80 95 64 43 255
3.36 -2.27 0.79 98 65 46 255
3.52 -2.12 0.79 100 68 48 255
3.73 -2.71 0.87 101 68 49 255
3.43 -2.42 0.81 99 67 46 255
3.60 -2.12 0.80 102 69 48 255
3.43 -1.97 0.77 101 65 41 255
3.52 -1.93 0.77 110 71 45 255
3.42 -2.54 0.82 100 68 47 255
3.39 -2.27 0.79 99 66 47 255
3.33 -2.51 0.81 97 65 44 255
3.53 -2.23 0.80 98 66 46 255
3.63 -2.20 0.81 101 69 48 255
3.37 -2.24 0.79 98 65 46 255
3.71 -2.64 0.86 101 69 48 255
3.64 -2.23 0.82 100 67 47 255
3.60 -1.99 0.79 108 71 45 255
3.42 -2.01 0.77 102 67 45 255
3.44 -1.97 0.77 101 65 41 255
3.62 -2.30 0.82 101 69 48 255
3.47 -1.97 0.77 102 66 42 255
3.36 -2.16 0.78 96 65 43 255
3.56 -2.60 0.84 101 69 48 255
3.52 -2.42 0.82 100 68 47 255
3.65 -2.57 0.85 102 70 49 255
3.64 -2.55 0.85 102 70 49 255
4.12 -2.74 1.12 100 64 50 255
3.80 -2.76 0.91 107 75 52 255
4.07 -2.67 1.06 105 69 55 255
4.24 -2.69 1.18 101 64 48 255
4.14 -2.20 0.97 123 86 59 255
4.04 -2.70 1.05 104 68 52 255
4.23 -2.61 1.15 103 68 49 255
3.97 -2.55 0.96 104 69 49 255
4.16 -2.43 1.05 108 71 52 255
4.04 -2.69 1.05 104 68 52 255
4.15 -2.35 1.02 110 72 53 255
4.14 -2.21 0.97 122 85 58 255
3.87 -2.63 0.91 104 69 49 255
4.20 -2.61 1.13 105 68 52 255
4.19 -2.30 1.03 112 74 53 255
4.18 -2.58 1.11 105 69 51 255
4.13 -2.59 1.08 104 68 50 255
3.91 -2.57 0.92 103 68 48 255
4.24 -2.58 1.15 102 67 48 255
4.08 -2.36 0.98 106 69 50 255
3.68 -1.71 0.82 113 72 42 255
3.74 -1.76 0.84 118 77 47 255
3.92 -1.71 1.01 135 95 60 255
4.17 -1.99 1.05 140 100 67 255
4.06 -2.03 0.94 140 100 64 255
4.10 -1.58 1.20 123 80 50 255
3.79 -1.83 0.85 117 76 46 255
4.12 -1.53 1.24 123 79 52 255
4.17 -1.65 1.21 120 79 47 255
4.19 -1.55 1.28 120 76 49 255
3.66 -1.63 0.84 115 74 42 255
4.01 -1.81 1.02 146 107 71 255
4.11 -1.84 1.08 146 108 72 255
4.08 -1.58 1.19 125 82 50 255
3.66 -1.69 0.82 115 74 44 255
3.99 -1.78 1.01 143 103 68 255
4.24 -1.68 1.26 117 78 48 255
4.22 -1.56 1.30 120 76 51 255
4.28 -1.52 1.37 119 78 50 255
4.03 -1.74 1.07 141 101 66 255
4.10 -1.60 1.19 127 84 52 255
4.23 -1.52 1.33 121 79 52 255
3.83 -1.68 0.95 118 77 45 255
3.66 -1.72 0.80 114 73 43 255
4.21 -1.55 1.30 120 76 51 255
3.88 -1.88 0.89 126 85 53 255
4.33 -1.49 1.41 117 78 49 255
3.86 -1.64 0.99 121 80 48 255
3.94 -1.78 0.98 136 96 62 255
4.10 -1.97 1.01 146 107 69 255
4.04 -2.02 0.93 141 101 65 255
3.93 -1.82 0.95 133 93 59 255
4.22 -1.83 1.17 123 84 54 255
3.94 -2.47 0.92 105 69 50 255
3.70 -2.11 0.82 108 74 47 255
3.63 -1.96 0.79 111 71 45 255
3.84 -2.18 0.87 110 74 48 255
3.80 -2.13 0.86 116 80 53 255
3.65 -1.88 0.80 115 74 46 255
3.83 -1.98 0.85 116 77 44 255
4.02 -2.34 0.94 110 74 52 255
3.84 -2.48 0.89 100 68 47 255
3.66 -1.89 0.80 115 74 46 255
3.90 -2.43 0.91 105 69 50 255
3.90 -2.54 0.91 104 69 47 255
4.00 -2.37 0.93 108 72 50 255
3.91 -2.44 0.91 105 69 50 255
3.81 -2.00 0.85 115 76 44 255
3.92 -2.49 0.92 105 70 50 255
3.97 -2.35 0.92 107 71 49 255
3.78 -2.03 0.84 116 77 47 255
3.68 -1.98 0.81 113 73 46 255
3.88 -2.35 0.89 105 70 50 255
3.65 -2.02 0.80 109 71 45 255
3.83 -2.53 0.89 100 68 47 255
3.80 -2.43 0.87 100 68 47 255
3.70 -2.29 0.83 102 70 49 255
3.72 -2.62 0.86 101 69 48 255
3.75 -2.32 0.85 104 69 49 255
3.62 -2.05 0.80 108 71 46 255
3.94 -2.07 0.89 129 91 61 255
3.83 -1.94 0.85 117 75 47 255
4.03 -2.18 0.93 124 87 60 255
3.69 -2.40 0.84 100 68 47 255
-3.77 2.91 1.51 54 56 68 255
-3.84 2.79 1.51 54 56 68 255
-3.88 2.72 1.60 61 63 75 255
-3.88 2.73 1.60 62 64 76 255
-3.88 2.73 1.61 60 62 75 255
-3.78 2.88 1.47 54 57 68 255
-3.79 2.88 1.48 56 58 69 255
-4.74 -0.48 1.14 44 43 50 255
-4.79 -0.36 1.07 47 46 52 255
-4.85 -0.32 0.97 55 54 60 255
-4.74 -0.57 1.09 55 54 60 255
-4.71 -0.74 1.09 49 48 54 255
-4.80 -0.51 0.99 44 43 49 255
-4.82 -0.43 0.97 55 54 60 255
-4.76 -0.37 1.13 46 45 51 255
-4.74 -0.38 1.18 45 44 50 255
-4.74 -0.65 1.06 45 44 50 255
-5.57 0.95 0.59 59 58 66 255
-5.52 0.96 0.64 59 56 65 255
-5.53 0.77 0.60 51 52 57 255
-5.53 0.66 0.57 33 32 38 255
-5.50 0.72 0.61 46 45 51 255
-4.24 3.44 0.89 73 74 86 255
-3.99 3.68 0.83 64 66 78 255
-4.31 3.52 0.80 73 75 87 255
-4.16 3.53 0.86 75 77 89 255
-4.18 3.41 0.94 74 76 88 255
-4.33 3.40 0.87 74 74 86 255
-4.08 3.54 0.89 68 70 82 255
-4.15 3.33 1.01 76 78 90 255
-4.41 3.45 0.80 62 62 74 255
-3.95 3.70 0.83 69 71 83 255
-4.09 3.59 0.85 71 73 85 255
-4.02 3.56 0.91 66 68 80 255
-3.98 3.65 0.86 68 70 82 255
-4.06 3.50 0.93 68 70 82 255
-3.61 3.26 1.25 34 36 49 255
-3.59 3.28 1.19 32 35 45 255
-3.59 3.28 1.32 58 60 75 255
-3.60 3.27 1.38 59 60 78 255
-3.60 3.26 1.22 30 32 45 255
-4.84 1.01 1.75 51 51 61 255
-4.88 0.95 1.68 68 68 78 255
-4.85 0.92 1.71 72 72 82 255
-5.09 0.58 1.25 52 52 60 255
-5.06 0.59 1.30 54 54 62 255
-5.07 0.62 1.28 58 58 66 255
-5.04 0.46 1.28 50 50 58 255
-5.15 0.64 1.19 53 53 61 255
-5.04 0.62 1.33 59 59 67 255
-4.51 3.63 -0.42 53 53 65 255
-4.49 3.64 -0.28 58 58 70 255
-4.56 3.59 -0.44 59 59 71 255
-4.52 3.62 -0.32 60 60 71 255
-4.63 3.54 -0.39 51 51 63 255
-4.61 3.56 -0.39 57 57 69 255
-4.47 3.48 0.67 64 64 76 255
-4.57 3.43 0.56 58 58 70 255
-4.56 -0.46 1.48 51 52 57 255
-4.61 -0.23 1.54 50 51 56 255
-4.61 -0.17 1.60 47 47 55 255
-4.53 -0.36 1.62 44 44 52 255
-4.60 -0.14 1.64 47 47 55 255
-4.54 -0.32 1.65 49 50 55 255
-4.69 -0.05 1.50 46 47 52 255
-4.53 -0.35 1.64 45 46 53 255
-4.68 -0.12 1.49 49 50 55 255
-4.35 3.81 -0.19 59 59 69 255
-4.35 3.81 -0.19 58 58 68 255
-4.30 3.86 -0.09 60 60 70 255
-4.39 3.75 -0.36 62 62 74 255
-4.36 3.80 -0.10 58 58 68 255
-4.40 3.75 -0.20 56 56 68 255
-4.32 3.84 -0.09 58 58 68 255
-4.30 2.96 1.23 68 70 83 255
-4.27 3.16 1.12 72 74 86 255
-4.31 2.99 1.22 66 68 81 255
-4.26 3.08 1.17 70 72 84 255
-4.17 3.12 1.16 65 67 80 255
-4.46 3.05 1.15 60 63 71 255
-4.39 3.08 1.15 65 68 77 255
-4.16 3.11 1.17 64 66 79 255
-4.16 2.93 1.27 55 58 66 255
-4.17 2.99 1.23 65 68 78 255
-3.73 3.11 1.22 34 38 48 255
-3.77 3.06 1.24 42 45 53 255
-3.81 3.14 1.11 2 4 12 255
-3.69 3.14 1.22 37 41 52 255
-3.64 3.27 1.12 48 51 59 255
-3.66 3.23 1.15 47 50 59 255
-4.50 3.64 -0.50 52 52 63 255
-4.71 3.47 -0.39 58 58 70 255
-4.66 3.51 -0.57 47 47 57 255
-4.70 3.47 -0.51 49 49 59 255
-4.63 3.53 -0.62 41 41 51 255
-4.52 3.63 -0.54 48 48 58 255
-4.65 3.52 -0.46 55 55 65 255
-4.50 3.64 -0.07 65 65 77 255
-4.54 3.60 -0.11 65 65 77 255
-4.58 3.57 0.03 56 56 68 255
-4.51 3.63 -0.12 60 60 72 255
-4.53 3.61 -0.11 63 63 75 255
-4.53 3.61 -0.14 65 65 77 255
-5.88 1.82 -0.30 83 83 93 255
-5.82 1.88 -0.30 63 63 73 255
-4.74 3.44 -0.52 49 49 59 255
-4.76 3.43 -0.48 51 51 61 255
-4.78 3.41 -0.58 49 49 59 255
-4.82 3.38 -0.51 50 50 60 255
-4.61 3.53 -0.10 53 53 65 255
-4.59 3.56 -0.16 59 59 71 255
-4.65 3.50 -0.08 58 58 70 255
-4.62 3.54 -0.24 59 59 71 255
-4.68 3.49 -0.25 55 55 67 255
-4.55 3.59 0.10 58 58 70 255
-4.48 3.63 0.31 57 57 69 255
-4.45 3.69 0.07 62 62 74 255
-4.38 3.76 0.08 61 61 73 255
-4.50 3.63 0.19 56 56 68 255
-4.33 3.84 -0.02 51 51 61 255
-4.48 3.65 0.15 53 53 65 255
-4.38 3.76 0.13 60 60 72 255
-4.58 3.57 0.06 58 58 70 255
-4.91 3.27 -0.06 53 53 65 255
-4.78 3.38 -0.04 56 56 68 255
-4.89 3.29 -0.19 53 53 65 255
-4.72 3.43 0.03 54 54 66 255
-4.73 3.44 -0.13 62 62 74 255
-4.77 3.39 -0.04 57 57 69 255
-4.75 3.42 -0.13 60 60 72 255
-4.78 3.40 -0.26 51 51 63 255
-4.35 3.68 0.55 58 58 70 255
-4.44 3.55 0.59 65 65 77 255
-4.30 3.71 0.58 63 63 75 255
-4.28 3.76 0.55 62 62 74 255
-4.36 3.61 0.65 63 63 75 255
-4.22 3.90 0.24 52 52 62 255
-4.29 3.84 0.20 61 61 71 255
-4.38 3.73 0.29 53 53 65 255
-4.25 3.89 0.13 46 46 56 255
-4.22 3.90 0.28 63 63 75 255
-4.26 3.87 0.19 51 51 61 255
-4.17 3.94 0.41 58 58 70 255
-4.32 3.79 0.37 59 59 71 255
-4.31 3.84 0.05 56 56 66 255
-4.22 3.90 0.26 60 60 71 255
-4.41 3.69 0.33 55 55 67 255
-3.89 3.21 1.08 38 41 50 255
-4.05 3.22 1.11 58 60 72 255
-3.83 3.14 1.11 0 1 8 255
-3.86 3.09 1.14 1 3 8 255
-3.69 3.08 1.43 56 58 70 255
-3.69 3.08 1.53 54 57 68 255
-4.33 3.26 1.01 72 74 86 255
-4.44 3.07 1.14 58 61 70 255
-4.40 3.21 1.02 60 60 72 255
-4.40 3.15 1.08 65 65 77 255
-4.28 3.26 1.02 71 73 85 255
-4.46 3.37 0.86 61 61 73 255
-4.21 3.28 1.02 67 69 81 255
-4.34 3.15 1.11 73 73 85 255
-4.32 3.27 1.00 74 76 88 255
-4.17 3.26 1.06 70 72 84 255
-4.31 3.18 1.09 75 77 89 255
-4.87 -0.25 0.97 52 51 57 255
-4.86 -0.16 1.09 46 45 51 255
-4.89 -0.03 1.13 46 45 51 255
-4.89 -0.17 1.01 48 47 53 255
-4.88 -0.09 1.10 47 46 52 255
-4.89 -0.08 1.10 47 46 52 255
-4.99 0.63 1.43 56 56 64 255
-4.98 0.60 1.42 47 47 55 255
-4.95 0.61 1.50 54 54 62 255
-4.96 0.55 1.45 50 50 58 255
-4.99 0.45 1.34 47 47 55 255
-4.89 0.09 1.25 46 47 52 255
-4.82 0.02 1.31 44 45 50 255
-4.93 0.21 1.27 45 46 51 255
-4.92 0.22 1.31 43 44 49 255
-4.89 0.06 1.22 44 45 50 255
-4.93 0.27 1.32 54 55 60 255
-4.74 0.01 1.46 46 47 52 255
-5.12 0.16 0.93 51 50 56 255
-4.98 -0.11 0.91 43 42 48 255
-5.05 0.10 0.99 48 47 53 255
-4.94 -0.09 1.00 47 46 52 255
-5.00 -0.02 0.96 46 45 51 255
-4.94 0.04 1.12 47 46 52 255
-4.90 -0.25 0.91 46 45 51 255
-4.94 -0.18 0.91 50 49 55 255
-4.82 -0.10 1.23 48 48 54 255
-4.77 -0.19 1.24 55 54 60 255
-4.81 0.01 1.33 46 47 52 255
-4.80 -0.04 1.30 42 43 48 255
-4.74 -0.28 1.23 47 46 52 255
-4.76 -0.01 1.39 44 45 51 255
-4.79 -0.11 1.27 45 46 51 255
-5.17 0.41 1.01 44 42 48 255
-5.18 0.43 1.02 44 42 47 255
-5.10 0.37 1.11 42 41 47 255
-5.18 0.43 1.01 45 43 48 255
-5.13 0.28 1.00 52 51 57 255
-5.18 0.48 1.06 41 38 45 255
-5.08 0.32 1.12 42 41 47 255
-5.16 0.40 1.03 46 45 51 255
-5.22 0.65 1.09 47 47 55 255
-5.24 0.62 1.05 46 45 52 255
-5.15 0.44 1.07 35 33 40 255
-4.98 0.41 1.35 50 50 58 255
-4.85 0.26 1.45 47 47 55 255
-4.94 0.45 1.43 52 52 60 255
-4.84 0.19 1.41 45 45 53 255
-4.80 0.11 1.43 48 48 56 255
-4.75 0.07 1.47 48 48 56 255
-4.91 0.53 1.52 48 48 56 255
-4.85 0.21 1.41 44 44 52 255
-4.84 0.40 1.55 52 52 60 255
-4.85 0.20 1.41 44 44 52 255
-5.43 0.51 0.69 44 43 51 255
-5.34 0.48 0.81 48 47 53 255
-5.33 0.38 0.75 49 48 54 255
-5.28 0.39 0.84 54 53 59 255
-5.33 0.61 0.90 46 45 51 255
-5.28 0.62 0.98 46 45 53 255
-5.31 0.67 0.97 43 42 51 255
-5.21 0.25 0.84 50 49 55 255
-5.32 0.57 0.89 41 40 46 255
-5.20 0.33 0.91 49 48 54 255
-5.30 0.66 0.98 43 42 50 255
-5.27 0.35 0.82 62 61 67 255
-5.28 0.32 0.78 52 51 57 255
-5.26 0.70 1.06 46 46 54 255
-5.45 0.88 0.73 61 59 69 255
-5.32 0.74 0.97 46 46 56 255
-5.36 0.74 0.89 52 51 59 255
-5.36 0.83 0.91 56 56 66 255
-5.35 0.69 0.91 48 47 53 255
-5.50 0.99 0.67 55 52 63 255
-5.48 0.53 0.62 38 37 43 255
-5.50 0.52 0.58 36 35 41 255
-5.40 0.73 0.82 44 43 49 255
-5.43 0.61 0.74 45 44 52 255
-5.49 0.62 0.61 31 30 36 255
-5.42 0.75 0.78 47 46 53 255
-5.46 0.64 0.69 43 42 49 255
-4.88 -0.43 0.85 50 49 55 255
-4.91 -0.57 0.72 51 50 56 255
-4.81 -0.76 0.84 60 59 65 255
-4.78 -0.59 0.99 52 51 57 255
-4.81 -0.74 0.85 63 62 68 255
-4.87 -0.73 0.74 55 54 60 255
-4.88 -0.35 0.89 50 49 55 255
-4.76 -0.67 1.00 53 52 58 255
-4.78 -0.72 0.94 52 51 57 255
-4.86 -0.42 0.89 47 46 52 255
-4.94 -0.67 0.60 53 52 61 255
-4.79 -0.58 0.97 49 48 54 255
-4.87 -0.43 0.86 50 49 55 255
-4.88 -0.52 0.80 55 54 60 255
-5.41 2.45 -0.34 60 58 71 255
-5.44 2.40 -0.34 57 55 68 255
-5.44 2.30 -0.30 55 55 67 255
-5.41 2.45 -0.34 59 58 71 255
-5.59 2.42 -0.56 64 63 76 255
-5.52 2.30 -0.41 59 57 70 255
-5.48 2.23 -0.31 61 61 73 255
-5.53 2.40 -0.48 64 62 75 255
-5.37 2.61 -0.36 63 63 75 255
-4.98 1.62 1.28 54 54 64 255
-4.97 1.69 1.28 53 53 63 255
-4.97 1.55 1.38 51 51 61 255
-4.95 1.60 1.43 49 49 59 255
-4.95 1.65 1.41 42 42 52 255
-4.97 1.70 1.29 52 52 62 255
-4.53 2.96 1.17 58 58 70 255
-4.62 2.80 1.20 58 58 70 255
-4.58 2.79 1.25 58 60 72 255
-4.61 2.84 1.18 55 55 67 255
-5.08 2.25 0.53 36 36 46 255
-4.69 2.24 1.52 63 66 75 255
-4.50 2.35 1.55 70 72 84 255
-4.68 2.13 1.59 63 65 77 255
-4.71 2.20 1.54 62 65 76 255
-4.60 2.34 1.50 65 67 79 255
-4.53 2.31 1.56 68 70 82 255
-4.59 2.37 1.49 64 66 79 255
-5.85 1.93 -0.36 69 69 79 255
-5.84 1.96 -0.39 63 64 74 255
-5.84 2.09 -0.51 46 50 59 255
-5.82 1.97 -0.38 63 63 74 255
-5.74 1.95 -0.31 70 70 80 255
-5.47 2.72 -0.63 61 63 74 255
-5.46 2.56 -0.47 66 64 77 255
-5.38 2.63 -0.40 62 62 74 255
-5.47 2.62 -0.55 65 64 74 255
-5.49 2.66 -0.61 65 67 76 255
-5.60 2.33 -0.51 59 59 71 255
-5.68 2.31 -0.56 57 57 69 255
-5.73 2.23 -0.53 51 55 66 255
-5.69 2.16 -0.44 54 54 67 255
-5.63 2.19 -0.42 57 57 69 255
-5.55 2.21 -0.35 59 59 71 255
-5.81 2.14 -0.54 45 50 59 255
-5.75 2.21 -0.54 49 52 64 255
-5.71 2.17 -0.47 58 58 70 255
-5.11 2.52 0.32 40 43 52 255
-5.14 2.30 0.16 62 62 74 255
-5.13 2.38 0.22 52 52 64 255
-5.17 2.36 0.08 57 57 68 255
-5.12 2.32 0.25 50 50 61 255
-5.15 2.41 0.16 52 52 64 255
-5.11 2.56 0.32 41 44 53 255
-5.10 2.41 0.34 37 40 49 255
-4.91 2.70 1.01 62 62 73 255
-4.89 2.78 0.94 60 60 72 255
-4.92 2.73 0.92 60 60 72 255
-4.95 2.76 0.81 58 58 70 255
-4.88 2.78 0.97 62 62 74 255
-4.85 2.82 0.98 59 59 71 255
-4.97 2.74 0.79 58 58 70 255
-4.86 2.86 0.92 58 58 70 255
-5.05 2.57 0.69 51 51 63 255
-5.04 2.46 0.83 57 59 71 255
-5.01 2.70 0.70 54 54 66 255
-5.02 2.62 0.75 53 53 65 255
-5.02 2.51 0.86 56 57 69 255
-4.99 2.75 0.73 55 55 67 255
-5.04 2.48 0.80 56 58 70 255
-5.00 2.77 0.68 56 56 68 255
-4.94 1.28 1.57 48 48 58 255
-4.94 1.19 1.61 54 54 64 255
-4.94 1.21 1.59 56 56 66 255
-5.02 1.03 1.43 50 50 60 255
-4.96 1.26 1.54 48 48 58 255
-5.00 1.08 1.49 50 50 60 255
-5.13 1.81 0.36 54 54 66 255
-5.12 1.84 0.42 54 54 64 255
-5.10 1.92 0.46 47 47 58 255
-5.10 1.96 0.42 50 50 62 255
-5.12 1.90 0.39 54 54 66 255
-5.15 1.94 0.20 54 54 66 255
-5.12 2.00 0.33 51 51 63 255
-5.16 1.90 0.21 43 43 55 255
-5.10 1.92 0.43 47 47 59 255
-5.14 1.98 0.26 69 69 81 255
-4.47 3.19 1.01 58 58 70 255
-4.61 3.13 0.95 55 55 67 255
-4.60 3.21 0.87 56 56 68 255
-4.52 3.04 1.12 56 58 65 255
-4.61 3.21 0.87 56 56 68 255
-4.70 3.07 0.92 58 58 70 255
-4.63 3.06 0.99 60 60 72 255
-4.58 3.19 0.91 59 59 71 255
-4.74 3.00 0.94 61 61 73 255
-4.57 3.08 1.03 57 57 69 255
-5.43 1.51 0.20 57 57 67 255
-5.44 1.59 0.11 56 56 66 255
-5.66 1.47 0.06 69 69 79 255
-5.60 1.56 0.01 61 61 71 255
-5.46 1.46 0.23 54 54 62 255
-5.62 1.51 0.04 69 69 80 255
-5.76 1.46 -0.01 62 62 72 255
-5.40 1.52 0.22 57 57 67 255
-5.58 1.45 0.14 68 67 81 255
-5.67 1.44 0.09 67 67 79 255
-5.52 1.44 0.21 53 53 61 255
-4.76 2.79 1.09 57 56 68 255
-4.83 2.77 1.04 59 59 71 255
-4.74 2.88 1.04 54 54 66 255
-4.85 2.68 1.08 61 59 72 255
-4.92 2.62 1.07 60 59 71 255
-5.06 1.59 0.94 53 53 63 255
-5.03 1.64 1.10 53 53 63 255
-5.02 1.69 1.00 55 55 65 255
-5.08 1.56 0.93 52 52 62 255
-5.03 1.63 1.09 53 53 63 255
-5.03 1.70 0.89 53 53 64 255
-4.98 2.45 1.06 51 51 63 255
-5.05 2.25 1.01 42 46 55 255
-4.97 2.51 1.05 50 50 62 255
-4.96 2.52 1.07 50 49 61 255
-5.01 2.30 1.09 42 45 54 255
-4.97 2.39 1.12 31 31 43 255
-4.97 2.48 1.07 42 42 54 255
-4.55 2.68 1.33 67 69 82 255
-4.21 2.84 1.32 54 57 64 255
-4.33 2.84 1.29 66 68 80 255
-4.24 2.81 1.33 62 64 75 255
-4.47 2.89 1.24 61 61 73 255
-4.28 2.86 1.29 69 71 83 255
-4.50 2.77 1.29 65 67 79 255
-4.26 2.85 1.30 61 63 75 255
-5.10 3.16 -0.42 61 59 72 255
-5.12 3.05 -0.23 57 60 69 255
-5.11 3.09 -0.26 55 55 66 255
-5.03 3.15 -0.13 56 56 68 255
-5.07 3.14 -0.25 52 52 64 255
-5.10 1.80 0.51 52 52 64 255
-5.09 1.98 0.49 51 51 61 255
-5.09 1.96 0.47 46 46 58 255
-4.69 2.72 1.19 58 58 70 255
-4.63 2.67 1.28 64 66 78 255
-4.69 2.80 1.15 60 60 72 255
-4.82 2.68 1.11 60 60 72 255
-4.58 2.69 1.32 65 67 80 255
-4.62 3.26 0.78 62 62 74 255
-4.62 3.29 0.73 61 61 73 255
-4.76 3.09 0.81 59 59 71 255
-4.63 3.26 0.76 61 61 73 255
-4.69 3.23 0.70 58 58 70 255
-4.67 3.16 0.85 57 57 69 255
-4.63 3.25 0.77 61 61 73 255
-4.58 3.29 0.79 60 60 72 255
-4.85 3.22 0.19 55 55 67 255
-4.91 3.15 0.18 53 53 65 255
-4.92 3.16 0.12 52 52 64 255
-4.96 3.11 0.16 54 54 66 255
-4.81 3.32 0.05 58 58 70 255
-4.92 3.16 0.15 51 51 63 255
-4.82 3.30 0.09 63 63 75 255
-4.91 3.17 0.12 54 54 66 255
-4.98 3.19 -0.06 56 56 68 255
-4.86 3.31 -0.03 55 55 67 255
-4.94 2.27 1.25 51 53 65 255
-4.86 2.41 1.27 53 55 68 255
-4.95 2.18 1.28 48 51 60 255
-4.93 2.53 1.12 56 56 68 255
-4.89 2.46 1.20 70 70 83 255
-4.97 2.26 1.22 49 51 63 255
-4.95 2.19 1.28 50 52 62 255
-4.85 3.02 0.72 62 62 74 255
-4.85 3.07 0.65 62 62 74 255
-4.85 3.02 0.70 64 64 76 255
-4.96 2.85 0.68 56 56 68 255
-4.82 3.04 0.76 62 62 74 255
-4.81 3.10 0.67 62 62 74 255
-4.79 3.25 0.34 56 56 68 255
-4.84 3.22 0.21 57 57 69 255
-4.84 3.20 0.30 57 57 69 255
-4.72 3.36 0.31 56 56 68 255
-4.79 3.29 0.23 56 56 68 255
-4.76 3.32 0.28 58 58 70 255
-4.80 3.28 0.21 57 57 69 255
-4.81 3.23 0.37 57 57 68 255
-4.90 3.33 -0.39 55 55 67 255
-4.81 3.40 -0.37 55 55 67 255
-5.00 3.26 -0.47 54 55 64 255
-5.09 2.16 0.36 38 38 50 255
-5.17 2.31 0.06 61 61 73 255
-5.13 2.09 0.23 45 45 57 255
-5.17 2.11 0.09 61 61 73 255
-5.17 2.25 0.07 62 62 74 255
-5.16 2.06 0.13 65 65 77 255
-5.17 2.29 0.08 63 63 75 255
-5.14 2.17 0.18 59 59 70 255
-5.02 2.00 0.96 46 46 56 255
-5.02 2.05 0.95 46 46 56 255
-5.00 1.96 1.14 41 41 51 255
-5.02 1.95 0.94 47 47 57 255
-4.99 1.94 1.18 37 37 47 255
-4.99 2.05 1.21 33 33 43 255
-4.99 1.96 1.17 37 37 47 255
-5.01 1.97 1.07 39 39 49 255
-4.94 2.08 1.34 36 39 48 255
-4.85 1.95 1.50 49 49 59 255
-4.93 2.09 1.35 40 43 52 255
-4.91 1.92 1.44 37 37 47 255
-4.92 2.11 1.36 45 48 57 255
-4.81 2.02 1.52 53 55 67 255
-4.72 2.05 1.61 60 62 74 255
-4.86 2.01 1.46 51 51 62 255
-5.26 2.62 -0.17 61 61 73 255
-5.34 2.62 -0.31 62 62 74 255
-5.24 2.57 -0.13 58 58 70 255
-5.26 2.55 -0.15 58 58 70 255
-5.34 2.63 -0.32 63 63 74 255
-5.18 2.54 -0.01 55 55 67 255
-5.26 2.68 -0.17 58 58 70 255
-5.23 2.59 -0.11 56 56 68 255
-5.32 2.63 -0.28 60 60 72 255
-5.38 2.20 -0.18 72 71 85 255
-5.23 2.26 -0.04 60 60 72 255
-5.25 2.19 -0.05 66 66 78 255
-5.29 2.10 -0.07 67 67 79 255
-5.23 2.25 -0.02 62 62 74 255
-5.32 2.25 -0.13 68 68 80 255
-5.21 2.21 -0.00 64 64 76 255
-5.29 2.08 -0.07 69 69 81 255
-4.90 3.06 0.48 59 59 71 255
-4.94 3.03 0.40 55 55 67 255
-4.91 3.07 0.42 55 55 67 255
-4.94 3.04 0.37 57 57 69 255
-4.91 2.19 1.33 51 53 65 255
-4.75 2.11 1.54 58 60 72 255
-4.82 2.08 1.47 59 61 73 255
-4.79 2.24 1.44 58 61 70 255
-4.73 2.06 1.59 59 61 73 255
-4.80 2.19 1.45 62 64 76 255
-4.73 2.20 1.52 63 66 75 255
-4.77 2.16 1.50 60 63 74 255
-4.86 1.82 1.54 42 42 52 255
-4.75 1.84 1.66 56 57 69 255
-4.80 1.85 1.60 54 54 66 255
-4.78 1.92 1.59 57 58 70 255
-4.75 1.71 1.74 56 56 67 255
-4.84 1.71 1.61 46 46 56 255
-4.83 1.81 1.58 45 45 55 255
-4.79 1.75 1.67 52 52 62 255
-5.07 2.24 0.80 31 34 43 255
-5.06 2.19 0.87 41 44 53 255
-5.05 2.11 0.83 36 36 46 255
-5.07 2.27 0.93 41 45 54 255
-5.04 2.66 0.58 49 49 61 255
-5.04 2.70 0.57 51 51 63 255
-5.03 2.67 0.63 51 51 63 255
-5.03 2.66 0.65 53 53 65 255
-5.04 2.65 0.62 50 50 62 255
-5.08 2.26 0.52 47 47 57 255
-5.10 2.51 0.42 35 38 47 255
-5.09 2.30 0.40 42 42 52 255
-5.09 2.40 0.38 34 37 46 255
-5.09 2.30 0.46 52 52 61 255
-5.39 1.20 0.60 52 53 63 255
-5.44 1.17 0.55 47 47 59 255
-5.43 1.16 0.57 49 49 61 255
-5.38 1.18 0.64 53 53 63 255
-5.09 1.37 1.14 56 56 66 255
-5.10 1.41 1.07 56 56 66 255
-5.02 1.54 1.20 54 54 64 255
-5.03 1.47 1.23 59 59 69 255
-5.06 1.52 1.08 51 51 61 255
-5.05 1.55 1.12 51 51 61 255
-5.09 1.47 1.06 56 56 66 255
-5.06 1.48 1.14 55 55 65 255
-5.05 1.51 1.13 53 53 63 255
-5.08 1.43 1.13 57 57 67 255
-5.04 2.18 1.00 41 44 53 255
-5.00 2.11 1.17 39 40 50 255
-5.06 2.25 0.99 45 49 58 255
-5.03 2.08 0.97 46 49 58 255
-5.05 2.16 0.92 37 40 49 255
-5.35 1.17 0.73 54 54 64 255
-5.42 1.08 0.72 52 54 63 255
-5.15 0.96 1.18 58 58 70 255
-5.16 1.22 1.01 54 54 66 255
-5.20 0.86 1.15 59 59 71 255
-5.17 1.18 1.01 56 56 68 255
-5.20 0.91 1.11 61 61 73 255
-5.16 0.90 1.20 60 60 71 255
-5.18 1.15 1.00 60 60 72 255
-5.14 0.91 1.25 61 61 71 255
-5.06 1.07 1.31 53 53 63 255
-5.15 1.00 1.17 59 59 69 255
-5.10 1.01 1.27 57 57 67 255
-5.13 1.00 1.20 60 60 70 255
-5.17 1.04 1.10 59 59 71 255
-5.13 1.26 1.04 55 55 65 255
-5.03 1.80 0.90 49 49 59 255
-5.02 1.72 0.91 52 52 62 255
-5.02 1.80 0.93 47 47 57 255
-5.02 1.80 0.91 48 48 58 255
-5.00 1.77 1.08 51 51 61 255
-4.72 2.92 1.03 54 54 66 255
-4.71 2.86 1.09 53 53 65 255
-4.72 2.98 0.98 59 59 71 255
-4.68 2.98 1.02 57 57 69 255
-4.61 3.49 0.27 53 53 65 255
-4.63 3.50 0.14 60 60 72 255
-4.65 3.45 0.29 52 52 64 255
-4.58 3.51 0.33 61 61 72 255
-4.57 3.54 0.27 52 52 64 255
-4.51 3.59 0.30 57 57 69 255
-5.01 2.78 0.56 54 54 66 255
-4.62 2.48 1.41 56 58 70 255
-4.70 2.39 1.42 58 60 73 255
-4.66 2.44 1.41 68 70 83 255
-4.56 2.64 1.36 64 66 79 255
-4.56 2.61 1.37 54 56 69 255
-4.60 2.58 1.37 67 69 81 255
-4.74 3.30 0.43 56 56 68 255
-4.86 3.15 0.39 55 55 67 255
-4.85 3.11 0.54 56 56 68 255
-4.86 3.13 0.46 58 58 70 255
-5.36 1.33 0.49 47 47 57 255
-5.15 1.64 0.52 56 56 66 255
-5.33 1.40 0.46 53 53 63 255
-5.48 1.78 -0.08 49 49 61 255
-5.50 1.73 -0.06 66 66 76 255
-5.56 1.77 -0.14 52 52 64 255
-5.11 2.63 0.26 47 49 61 255
-5.08 2.86 0.15 56 59 68 255
-5.11 2.75 0.16 53 56 65 255
-5.05 2.88 0.20 56 57 67 255
-5.07 2.71 0.29 50 52 64 255
-5.10 2.71 0.22 49 51 63 255
-5.06 2.88 0.17 56 59 68 255
-5.04 2.91 0.21 54 54 66 255
-4.60 3.33 0.70 60 60 72 255
-4.54 3.38 0.73 58 58 70 255
-4.69 3.30 0.59 54 54 66 255
-4.71 3.23 0.65 58 58 70 255
-4.60 3.33 0.70 60 60 72 255
-4.80 3.16 0.62 62 62 74 255
-5.18 2.39 0.04 56 56 68 255
-5.15 2.76 0.06 57 59 70 255
-5.15 2.56 0.10 49 49 61 255
-5.14 2.58 0.17 48 50 62 255
-5.17 2.50 0.02 53 53 65 255
-5.17 2.56 0.01 53 53 65 255
-5.13 2.59 0.18 49 51 63 255
-5.15 2.55 0.14 54 54 66 255
-5.32 1.51 0.34 56 56 66 255
-5.27 1.56 0.39 57 57 67 255
-5.36 1.41 0.39 56 56 66 255
-5.24 1.62 0.37 56 56 66 255
-5.36 1.61 0.17 53 53 63 255
-5.28 1.56 0.37 57 57 67 255
-5.32 1.49 0.38 56 56 66 255
-5.24 1.56 0.43 58 58 68 255
-5.26 1.55 0.41 58 58 68 255
-5.32 1.64 0.20 56 56 68 255
-5.45 2.08 -0.20 72 71 85 255
-5.42 2.11 -0.20 76 75 89 255
-5.22 1.98 0.01 53 53 65 255
-5.34 2.08 -0.12 76 75 89 255
-5.40 2.14 -0.19 75 74 88 255
-4.84 1.56 1.66 45 45 55 255
-4.91 1.66 1.52 42 42 52 255
-4.89 1.66 1.56 44 44 54 255
-4.86 1.65 1.62 46 46 56 255
-4.87 1.48 1.63 42 42 52 255
-4.84 1.49 1.68 47 47 57 255
-4.93 1.67 1.48 42 42 52 255
-4.90 1.55 1.56 45 45 55 255
-5.08 1.28 1.18 54 54 64 255
-5.09 1.20 1.19 54 54 64 255
-5.00 1.31 1.41 51 51 61 255
-5.06 1.32 1.24 54 54 64 255
-5.09 1.34 1.16 55 55 65 255
-5.01 1.34 1.38 58 58 68 255
-5.02 1.18 1.39 48 48 58 255
-5.13 1.26 1.06 56 56 66 255
-5.02 1.15 1.40 50 50 60 255
-5.13 1.31 1.04 53 53 63 255
-5.06 1.35 1.22 57 57 67 255
-5.38 1.81 -0.01 34 34 46 255
-5.26 1.92 0.02 57 57 69 255
-5.32 1.80 0.04 52 52 64 255
-5.34 1.76 0.05 58 58 70 255
-5.28 1.85 0.04 55 55 67 255
-5.05 2.36 0.92 54 56 68 255
-5.08 2.40 0.73 45 48 57 255
-5.04 2.44 0.87 48 50 62 255
-5.04 2.43 0.88 43 45 57 255
-5.08 2.37 0.76 40 43 52 255
-5.33 1.67 0.14 59 59 71 255
-5.14 1.77 0.38 61 61 71 255
-5.17 1.74 0.37 57 57 67 255
-5.28 1.78 0.11 60 60 72 255
-5.18 1.86 0.20 54 54 66 255
-5.25 1.77 0.18 51 51 63 255
-5.24 1.86 0.08 41 41 53 255
-5.27 1.77 0.13 55 55 67 255
-5.14 1.72 0.45 57 57 67 255
-5.66 1.72 -0.17 73 73 83 255
-5.73 1.73 -0.20 71 71 81 255
-5.78 1.59 -0.14 60 60 70 255
-5.64 1.67 -0.13 57 57 67 255
-5.50 1.68 -0.04 58 58 68 255
-5.68 1.58 -0.07 56 56 66 255
-5.61 1.58 -0.02 58 58 68 255
-5.45 1.66 0.02 64 64 74 255
-5.74 1.57 -0.10 59 59 69 255
-4.81 1.46 1.74 59 59 69 255
-4.88 1.37 1.66 50 50 60 255
-4.92 1.29 1.61 53 53 63 255
-4.88 1.27 1.70 50 50 60 255
-4.92 1.32 1.60 48 48 58 255
-4.92 1.42 1.55 49 49 59 255
-5.03 3.09 -0.05 57 57 69 255
-4.99 3.10 0.07 56 56 68 255
-5.00 3.09 0.08 56 56 68 255
-5.02 2.99 0.16 52 52 65 255
-5.00 3.14 -0.02 55 55 67 255
-5.05 3.04 -0.03 55 55 67 255
-5.04 3.00 0.06 55 55 67 255
-5.10 2.92 0.01 55 58 67 255
-5.08 3.08 -0.15 56 56 68 255
-5.13 2.91 -0.07 55 58 67 255
-5.17 2.95 -0.20 56 59 68 255
-5.18 2.89 -0.15 58 61 70 255
-5.16 2.92 -0.14 56 59 68 255
-5.06 1.86 0.72 55 55 65 255
-5.05 1.93 0.79 44 44 54 255
-5.07 1.86 0.70 54 54 64 255
-5.04 1.72 0.81 52 52 62 255
-5.05 1.90 0.78 49 49 59 255
-4.95 1.79 1.31 36 36 46 255
-4.97 1.82 1.22 43 43 53 255
-4.95 1.81 1.32 34 34 44 255
-4.97 1.80 1.24 45 45 55 255
-4.98 1.94 1.26 30 30 40 255
-4.97 1.95 1.30 30 30 40 255
-4.68 2.57 1.32 51 53 68 255
-4.63 2.61 1.33 52 54 67 255
-4.82 2.60 1.17 67 67 79 255
-4.78 2.58 1.21 58 57 71 255
-4.78 2.56 1.24 44 46 59 255
-4.83 2.58 1.17 64 64 76 255
-4.71 2.55 1.31 66 68 81 255
-3.69 3.39 1.00 7 7 15 255
-3.63 3.31 1.10 45 48 54 255
-3.66 3.39 1.02 18 18 26 255
-3.65 3.45 0.99 11 14 20 255
-3.94 3.53 0.94 60 63 72 255
-3.99 3.50 0.96 71 74 83 255
-3.77 3.45 0.97 32 35 41 255
-3.86 3.62 0.89 57 60 71 255
-3.98 3.35 1.04 54 56 68 255
-3.76 3.46 0.96 39 42 48 255
-3.97 3.37 1.03 51 53 65 255
-3.78 3.47 0.96 42 45 52 255
-4.02 3.41 1.01 64 66 78 255
-5.83 1.68 -0.21 64 64 74 255
-5.82 1.59 -0.14 61 61 71 255
-5.87 1.75 -0.26 49 47 58 255
-5.65 1.94 -0.25 80 80 92 255
-5.54 2.04 -0.23 71 70 84 255
-5.56 2.03 -0.24 72 71 85 255
-5.55 2.07 -0.26 71 71 84 255
-5.61 1.75 -0.16 65 65 77 255
-5.52 1.89 -0.16 59 59 71 255
-5.33 0.97 0.90 55 55 65 255
-5.35 0.86 0.91 56 56 66 255
-5.30 0.94 0.94 57 57 67 255
-5.30 0.96 0.93 56 56 66 255
-5.39 0.94 0.83 57 57 67 255
-5.28 1.15 0.88 60 60 72 255
-5.31 0.94 0.93 57 57 67 255
-5.28 0.78 1.03 53 53 63 255
-5.23 1.20 0.92 60 60 72 255
-5.25 1.06 0.95 60 60 72 255
-5.23 1.22 0.90 59 59 71 255
-5.36 0.95 0.87 54 54 64 255
-5.29 1.10 0.88 55 55 67 255
-5.33 0.99 0.89 55 55 65 255
-4.98 1.04 1.52 45 45 55 255
-4.95 0.97 1.57 50 50 60 255
-4.96 1.02 1.56 46 46 56 255
-4.86 3.36 -0.36 54 54 66 255
-4.94 3.28 -0.28 51 51 64 255
-4.89 3.31 -0.25 51 51 63 255
-4.81 3.39 -0.33 52 52 64 255
-4.87 3.34 -0.32 55 55 67 255
-5.01 3.24 -0.33 50 53 62 255
-4.98 3.25 -0.31 51 54 63 255
-5.30 2.46 -0.20 62 62 74 255
-5.33 2.36 -0.18 64 64 76 255
-5.36 2.43 -0.26 60 60 72 255
-5.32 2.44 -0.21 62 62 74 255
-5.32 2.51 -0.25 63 63 75 255
-5.27 2.44 -0.14 58 58 70 255
-5.27 2.43 -0.14 60 60 72 255
-5.30 2.54 -0.24 62 62 74 255
-5.26 2.76 -0.23 60 60 71 255
-5.22 2.80 -0.16 57 59 69 255
-5.22 2.89 -0.28 54 58 67 255
-5.30 2.68 -0.27 61 61 73 255
-5.19 2.78 -0.07 54 57 66 255
-5.20 2.80 -0.12 57 60 69 255
-5.65 1.20 0.30 57 56 64 255
-5.54 1.37 0.27 58 58 66 255
-5.72 1.28 0.17 67 65 78 255
-5.51 1.29 0.35 59 59 67 255
-5.71 1.17 0.27 62 61 69 255
-5.65 1.26 0.25 58 58 66 255
-5.67 1.25 0.24 62 61 70 255
-5.75 1.30 0.13 72 70 83 255
-5.72 1.22 0.22 71 69 80 255
-5.66 1.21 0.28 56 55 63 255
-5.05 0.74 1.35 55 55 65 255
-5.06 0.76 1.34 54 54 64 255
-5.15 0.76 1.23 55 55 65 255
-5.15 0.86 1.25 58 58 68 255
-5.06 0.72 1.33 55 55 65 255
-5.08 0.88 1.34 57 57 67 255
-4.87 0.69 1.65 53 53 63 255
-4.88 0.91 1.67 67 67 77 255
-4.83 0.81 1.71 57 57 67 255
-4.86 0.88 1.69 62 62 72 255
-5.71 2.01 -0.34 64 64 75 255
-5.72 2.09 -0.42 55 55 67 255
-5.67 2.06 -0.35 65 65 77 255
-5.64 2.02 -0.29 68 68 80 255
-5.56 2.10 -0.28 71 71 83 255
-5.63 2.14 -0.38 63 63 75 255
-5.78 2.05 -0.43 55 55 65 255
-4.96 0.80 1.51 52 52 62 255
-4.94 0.83 1.55 49 49 59 255
-4.93 0.93 1.58 49 49 59 255
-4.96 0.92 1.52 51 51 61 255
-4.93 0.63 1.54 50 50 60 255
-5.03 0.82 1.39 53 53 63 255
-4.94 0.74 1.53 52 52 62 255
-5.03 0.94 1.41 56 56 66 255
-3.90 3.25 1.07 45 49 58 255
-3.81 3.23 1.06 6 10 18 255
-3.77 3.42 0.99 25 28 35 255
-3.90 3.24 1.07 43 47 56 255
-3.86 3.37 1.02 30 33 42 255
-3.85 3.38 1.01 28 31 39 255
-4.36 2.46 1.57 62 64 75 255
-4.29 2.44 1.62 53 55 65 255
-4.25 2.48 1.62 42 45 54 255
-4.27 2.30 1.73 50 53 62 255
-4.20 2.41 1.70 43 46 53 255
-4.35 2.39 1.62 54 56 68 255
-4.35 2.22 1.73 67 69 81 255
-4.47 2.23 1.65 63 65 77 255
-4.52 2.13 1.69 60 62 74 255
-4.48 2.33 1.58 71 73 85 255
-4.46 2.33 1.59 69 71 83 255
-4.58 2.20 1.60 62 64 76 255
-4.50 2.19 1.66 61 63 75 255
-4.50 2.28 1.60 71 73 85 255
-4.16 2.56 1.54 46 49 58 255
-4.18 2.48 1.65 45 48 55 255
-4.26 2.62 1.49 57 60 69 255
-4.15 2.63 1.48 43 46 55 255
-4.12 2.65 1.47 22 25 33 255
-4.33 2.56 1.52 50 53 63 255
-4.46 2.48 1.50 72 74 86 255
-4.53 2.65 1.37 67 69 82 255
-4.39 2.56 1.49 78 80 92 255
-4.47 2.66 1.38 71 73 86 255
-4.47 2.70 1.34 67 69 82 255
-4.29 2.73 1.37 73 75 87 255
-4.31 2.65 1.46 48 51 61 255
-4.30 2.68 1.42 78 80 92 255
-3.97 2.63 1.68 56 58 68 255
-4.12 2.53 1.60 37 40 46 255
-4.06 2.57 1.63 13 16 21 255
-4.05 2.69 1.52 31 34 40 255
-4.04 2.73 1.53 23 26 33 255
-4.08 2.74 1.46 56 59 65 255
-4.03 2.66 1.57 13 16 22 255
-3.90 2.76 1.50 54 56 66 255
-3.99 2.76 1.48 26 29 37 255
-3.94 2.70 1.63 58 60 72 255
-4.04 2.80 1.37 16 19 25 255
-3.86 2.77 1.49 53 55 67 255
-3.98 2.78 1.41 26 29 36 255
-3.84 2.84 1.34 47 50 58 255
-3.93 2.94 1.25 4 6 12 255
-3.90 2.86 1.32 42 45 52 255
-4.04 2.84 1.32 16 19 23 255
-4.72 -0.03 1.46 43 44 49 255
-4.71 -0.32 1.27 52 51 57 255
-4.69 -0.13 1.45 48 49 54 255
-4.61 -0.35 1.46 47 48 53 255
-4.70 -0.27 1.33 54 55 60 255
-4.70 -0.24 1.34 46 47 52 255
-4.73 -0.17 1.34 48 49 54 255
-4.61 -0.34 1.46 46 47 52 255
-4.85 0.50 1.61 49 49 58 255
-4.76 0.40 1.71 47 47 56 255
-4.86 0.55 1.63 50 50 60 255
-4.79 0.43 1.67 47 47 55 255
-4.82 0.51 1.67 46 46 54 255
-4.81 0.42 1.62 51 51 59 255
-4.79 0.41 1.66 49 49 57 255
-4.79 0.36 1.62 51 51 59 255
-4.77 0.32 1.63 52 52 60 255
-4.66 0.23 1.76 47 47 57 255
-4.87 0.53 1.58 49 49 59 255
-4.73 0.23 1.64 51 51 59 255
-4.69 0.24 1.72 48 48 56 255
-4.67 -0.52 1.25 46 45 51 255
-4.67 -0.82 1.12 50 49 55 255
-4.69 -0.43 1.24 48 47 53 255
-4.64 -0.67 1.23 52 51 57 255
-4.67 -0.67 1.19 52 51 57 255
-4.70 -0.64 1.14 50 49 55 255
-4.70 -0.68 1.13 50 49 55 255
-4.61 -0.67 1.29 50 49 55 255
-4.68 -0.48 1.24 47 46 52 255
-4.73 -0.39 1.19 47 46 52 255
-4.98 0.17 1.15 52 51 57 255
-5.13 0.20 0.92 50 49 55 255
-4.97 0.24 1.23 56 57 63 255
-5.04 0.27 1.15 45 44 50 255
-4.98 0.18 1.16 52 51 57 255
-5.08 0.22 1.03 46 45 51 255
-4.97 0.08 1.10 48 47 53 255
-5.74 1.78 -0.23 61 59 70 255
-5.64 1.80 -0.19 66 66 77 255
-5.91 1.07 0.11 58 57 65 255
-5.81 1.09 0.21 65 64 72 255
-5.78 1.03 0.26 62 59 66 255
-5.89 0.91 0.19 52 51 57 255
-5.87 0.89 0.22 52 51 57 255
-5.89 0.91 0.19 53 52 58 255
-5.84 1.11 0.17 68 67 75 255
-5.57 0.96 0.58 59 58 66 255
-5.83 1.24 0.08 62 60 68 255
-5.80 1.13 0.20 70 69 77 255
-5.97 1.14 0.01 52 52 61 255
-5.85 1.20 0.09 61 60 68 255
-5.99 1.11 0.01 52 52 60 255
-5.87 1.12 0.13 63 60 67 255
-5.93 1.20 0.01 54 53 61 255
-5.88 1.33 -0.04 61 60 68 255
-5.79 1.19 0.17 76 74 85 255
-5.60 1.12 0.43 59 56 63 255
-5.64 1.09 0.42 63 60 66 255
-5.64 1.15 0.35 56 55 63 255
-5.67 1.15 0.33 57 56 64 255
-5.53 1.23 0.39 50 50 59 255
-4.52 -0.43 1.63 45 45 53 255
-4.55 -0.50 1.48 52 53 57 255
