ply
format ascii 1.0
element vertex 1527
property float x
property float y
property float z
property uchar red
property uchar green
property uchar blue
property uchar alpha
end_header
-2.11 2.16 2.14 223 207 192 255
-1.31 1.98 2.47 232 201 170 255
-1.10 2.13 2.49 234 204 176 255
-1.25 2.10 2.62 224 193 164 255
-1.26 2.07 2.58 222 191 162 255
-1.28 1.98 2.42 229 198 167 255
-1.06 2.99 2.62 224 191 156 255
-0.94 2.81 2.65 225 194 160 255
-1.04 2.98 2.66 229 196 163 255
-0.93 2.72 2.58 215 183 148 255
-0.94 2.67 2.50 212 184 150 255
-0.94 2.79 2.63 222 189 154 255
-0.90 2.70 2.60 215 182 147 255
-0.94 2.71 2.53 208 178 144 255
-1.00 2.72 2.44 193 164 133 255
-0.98 2.73 2.49 217 188 155 255
-0.96 2.88 2.71 233 207 177 255
-1.01 2.87 2.59 214 180 145 255
-1.28 3.08 2.45 220 188 157 255
-1.32 3.10 2.43 219 188 158 255
-1.27 3.13 2.51 203 172 141 255
-1.55 3.01 2.30 216 198 176 255
-1.42 3.09 2.39 229 199 173 255
-1.41 3.14 2.44 221 194 166 255
-1.38 3.03 2.36 226 198 168 255
-1.52 3.06 2.35 227 205 178 255
-2.00 1.97 2.14 226 205 188 255
-2.06 2.29 2.18 232 215 199 255
-1.93 1.94 2.18 221 193 165 255
-1.90 2.05 2.24 217 190 165 255
-2.05 2.08 2.13 223 207 192 255
-1.92 1.96 2.20 224 195 168 255
-2.04 2.00 2.12 223 206 191 255
-1.23 2.82 2.30 234 205 171 255
-1.36 2.67 2.17 237 208 176 255
-1.20 2.86 2.32 220 191 159 255
-1.21 2.74 2.27 239 209 175 255
-1.10 2.67 2.29 229 196 164 255
-1.26 2.62 2.19 236 209 179 255
-1.27 2.74 2.24 224 194 164 255
-1.32 2.77 2.23 226 197 167 255
-0.86 4.49 2.58 210 200 176 255
-0.89 4.46 2.61 215 204 181 255
-1.86 2.05 2.25 219 192 165 255
-1.93 2.27 2.19 236 219 201 255
-1.84 2.02 2.26 222 192 166 255
-1.95 2.17 2.22 230 212 190 255
-1.88 2.25 2.20 236 220 197 255
-1.94 2.27 2.19 238 221 203 255
-1.81 2.18 2.22 238 216 189 255
-1.24 3.11 2.52 208 178 145 255
-1.16 3.10 2.61 234 204 169 255
-1.12 3.11 2.67 239 210 176 255
-1.18 3.10 2.58 226 196 160 255
-1.55 3.16 2.40 215 191 166 255
-1.47 3.22 2.46 218 193 163 255
-0.99 2.47 2.36 200 169 143 255
-1.00 2.56 2.34 214 180 152 255
-1.00 2.19 2.40 238 211 182 255
-0.96 2.38 2.42 191 164 135 255
-1.00 2.35 2.38 210 183 154 255
-1.19 2.50 2.22 242 218 190 255
-1.15 2.53 2.24 242 217 187 255
-1.35 2.55 2.15 251 225 195 255
-1.32 2.49 2.16 249 227 200 255
-1.23 2.57 2.20 238 213 183 255
-1.16 2.46 2.24 241 220 191 255
-1.26 2.25 2.18 249 228 198 255
-1.36 2.58 2.14 251 225 193 255
-1.44 2.79 2.21 227 202 171 255
-1.51 2.87 2.23 225 201 172 255
-1.30 2.90 2.30 224 198 163 255
-1.41 2.92 2.29 232 206 176 255
-1.28 2.90 2.31 225 200 165 255
-1.36 2.96 2.32 225 196 164 255
-1.42 2.78 2.21 228 202 171 255
-1.57 3.01 2.29 215 197 177 255
-1.47 2.84 2.23 229 204 174 255
-1.06 2.21 2.35 221 195 168 255
-1.07 2.21 2.34 227 201 174 255
-1.12 2.29 2.28 229 205 179 255
-1.04 2.47 2.31 213 183 155 255
-1.06 2.23 2.34 224 198 171 255
-1.07 2.47 2.29 221 195 165 255
-1.04 2.23 2.36 238 212 185 255
-1.11 2.41 2.27 246 224 194 255
-1.29 3.20 2.57 205 179 146 255
-1.40 3.23 2.52 199 170 138 255
-1.33 3.30 2.64 235 211 179 255
-1.39 3.21 2.50 204 176 146 255
-1.53 2.25 2.19 238 204 176 255
-1.60 2.26 2.19 236 206 178 255
-1.56 2.07 2.27 238 209 179 255
-1.57 2.12 2.25 241 211 181 255
-1.59 2.27 2.19 236 205 177 255
-1.50 2.14 2.23 239 208 178 255
-1.43 1.99 2.34 228 198 164 255
-1.39 2.06 2.29 219 189 155 255
-1.50 2.03 2.28 228 199 169 255
-1.43 2.02 2.32 231 201 167 255
-1.09 2.86 2.44 219 186 154 255
-1.08 3.04 2.65 228 198 165 255
-1.22 2.96 2.37 217 185 154 255
-1.09 2.77 2.35 226 193 162 255
-1.06 2.77 2.40 207 174 143 255
-1.13 3.00 2.54 216 183 150 255
-1.05 2.79 2.43 204 172 141 255
-1.11 2.99 2.56 232 199 166 255
-1.39 2.55 2.14 245 222 191 255
-1.34 2.32 2.17 249 234 203 255
-1.45 2.49 2.15 254 238 208 255
-1.42 2.38 2.16 252 237 209 255
-1.31 2.36 2.16 254 243 217 255
-1.41 2.46 2.15 254 241 213 255
-1.41 2.24 2.18 237 211 181 255
-1.32 2.35 2.17 254 241 214 255
-0.81 3.00 3.43 232 208 170 255
-0.76 3.00 3.44 239 216 176 255
-0.77 3.16 3.38 224 200 162 255
-0.80 2.90 3.47 239 216 175 255
-0.82 2.90 3.46 238 215 174 255
-0.89 2.92 3.44 235 213 176 255
-1.53 1.99 2.33 218 190 161 255
-1.45 1.95 2.40 216 185 151 255
-1.39 1.93 2.43 220 189 158 255
-1.41 1.96 2.39 221 188 154 255
-2.03 1.73 2.14 218 189 158 255
-2.05 1.73 2.12 220 190 163 255
-2.02 1.66 2.18 215 186 156 255
-2.01 1.68 2.19 215 186 156 255
-1.25 2.10 2.31 240 214 181 255
-1.24 2.04 2.37 240 211 178 255
-1.25 2.16 2.24 248 224 191 255
-1.22 2.17 2.26 244 221 189 255
-1.21 2.08 2.36 240 214 181 255
-0.94 2.53 2.43 181 154 123 255
-0.92 2.56 2.48 181 151 118 255
-0.90 2.58 2.54 193 163 129 255
-0.91 2.48 2.47 190 165 132 255
-0.87 2.58 2.60 168 135 102 255
-0.86 2.57 2.63 160 127 92 255
-1.71 1.89 2.42 222 193 168 255
-1.72 1.99 2.29 232 211 186 255
-1.66 1.95 2.35 234 211 184 255
-1.65 1.99 2.30 238 215 190 255
-0.57 2.76 3.50 237 205 156 255
-0.54 2.71 3.50 219 191 143 255
-0.57 2.77 3.49 239 207 158 255
-0.64 2.89 3.49 213 185 138 255
-0.56 2.91 3.46 224 192 142 255
-0.54 3.07 3.42 224 196 149 255
-0.54 2.98 3.44 228 197 146 255
-0.60 2.92 3.47 216 185 138 255
0.35 2.17 4.77 177 136 85 255
-0.51 3.28 3.34 231 204 161 255
-0.50 3.32 3.33 231 207 165 255
-0.48 3.21 3.37 223 197 156 255
2.18 2.12 3.65 207 171 106 255
2.13 2.11 3.76 208 170 108 255
2.18 2.06 3.93 197 157 98 255
2.31 2.09 3.61 213 179 111 255
2.21 2.07 3.84 204 165 104 255
2.34 2.11 3.52 219 182 113 255
2.11 2.12 3.73 205 170 108 255
-1.81 3.05 2.30 216 192 165 255
-1.78 3.17 2.36 230 209 190 255
-1.90 3.06 2.31 223 200 176 255
-1.85 3.29 2.42 214 196 172 255
-1.87 3.09 2.32 217 196 169 255
-1.87 3.09 2.32 217 195 168 255
-1.82 3.19 2.37 227 206 185 255
-1.31 1.65 4.14 231 193 156 255
-1.29 1.61 4.25 238 200 164 255
-1.26 1.67 4.19 238 200 165 255
-1.30 1.64 4.17 233 195 159 255
0.39 2.97 3.31 213 187 141 255
0.29 2.97 3.30 250 227 182 255
-1.43 0.81 5.55 171 131 94 255
-1.48 0.64 5.49 183 141 104 255
-1.46 0.72 5.57 164 121 87 255
-1.44 0.79 5.49 170 131 92 255
-1.43 0.83 5.64 170 130 95 255
1.73 1.87 5.20 159 118 69 255
1.75 1.87 5.21 164 122 70 255
1.93 1.85 5.16 161 118 67 255
-1.61 3.23 2.41 219 197 173 255
-1.65 3.09 2.32 221 203 183 255
-1.63 3.10 2.34 220 203 179 255
0.58 3.04 3.23 240 213 160 255
0.56 3.07 3.23 242 215 162 255
0.50 3.43 3.10 245 218 164 255
0.24 3.31 3.17 237 207 159 255
0.39 3.38 3.13 240 212 162 255
0.40 3.38 3.13 241 213 162 255
0.43 3.39 3.12 241 214 161 255
1.91 1.86 4.76 170 127 74 255
1.77 1.91 4.74 145 102 59 255
1.84 1.88 4.73 167 123 74 255
2.04 1.81 4.75 145 104 55 255
1.33 1.95 4.37 168 128 77 255
1.23 1.99 4.33 179 139 87 255
1.26 2.00 4.30 183 143 90 255
-0.67 2.74 3.57 228 200 152 255
-0.61 2.77 3.51 233 203 153 255
-0.95 4.06 3.10 232 209 171 255
-0.80 4.07 3.09 225 197 155 255
-0.91 4.12 3.05 228 204 163 255
-0.85 4.04 3.11 229 205 165 255
1.29 3.56 2.29 249 227 167 255
1.18 3.54 2.44 246 222 164 255
1.19 3.60 2.36 252 227 169 255
1.14 3.55 2.49 244 218 161 255
1.24 3.54 2.37 249 224 163 255
1.08 3.57 2.52 243 220 166 255
1.14 3.54 2.49 244 218 161 255
1.12 3.61 2.43 241 219 163 255
1.26 3.49 2.41 249 224 160 255
1.92 2.72 2.38 253 229 167 255
1.78 2.85 2.35 234 204 142 255
1.94 2.89 2.24 254 234 169 255
1.80 2.94 2.27 228 197 135 255
1.94 2.82 2.29 253 232 169 255
1.86 2.81 2.34 253 227 166 255
1.92 2.82 2.30 250 227 165 255
-0.13 3.69 3.16 226 201 152 255
0.67 2.89 3.28 240 210 155 255
0.64 2.98 3.23 234 207 153 255
0.67 2.85 3.30 235 204 149 255
0.74 2.95 3.21 237 208 151 255
0.43 3.53 2.97 245 222 172 255
0.35 3.51 3.00 231 205 154 255
0.44 3.54 2.96 249 226 177 255
0.44 3.49 3.03 229 203 152 255
0.32 3.51 3.00 238 212 161 255
-0.74 3.38 3.35 252 232 194 255
-0.63 3.41 3.33 231 203 159 255
-0.71 3.39 3.35 244 224 184 255
0.62 3.15 3.20 236 210 159 255
0.19 1.81 6.42 165 128 96 255
0.16 1.79 6.57 154 119 89 255
0.15 1.79 6.47 158 121 92 255
2.15 2.14 3.54 196 156 97 255
2.22 2.13 3.49 204 164 102 255
2.10 2.15 3.54 189 148 92 255
2.10 2.14 3.61 186 145 89 255
2.09 2.13 3.70 178 142 84 255
2.26 2.11 3.58 212 174 109 255
2.09 2.13 3.68 180 143 84 255
0.21 3.56 3.02 235 207 157 255
0.37 3.57 2.92 234 211 161 255
0.25 3.51 3.03 234 207 157 255
0.86 3.24 2.99 238 212 162 255
0.85 3.22 3.01 243 218 169 255
0.07 4.25 2.22 220 196 150 255
0.04 4.26 2.16 229 205 161 255
0.15 4.21 2.24 232 208 162 255
1.55 2.13 3.84 200 163 111 255
1.54 2.14 3.83 195 158 106 255
1.47 2.14 3.87 184 146 96 255
1.63 2.11 3.83 187 147 96 255
1.53 2.15 3.80 194 157 105 255
1.62 2.10 3.90 175 138 86 255
1.24 2.58 3.22 208 175 122 255
1.27 2.45 3.34 198 160 111 255
1.21 2.54 3.31 201 166 116 255
1.44 1.83 5.10 105 67 31 255
1.50 1.82 5.32 104 66 35 255
1.39 1.83 5.32 119 81 44 255
1.47 1.82 5.35 104 65 33 255
1.36 2.49 3.22 194 158 108 255
1.27 2.43 3.40 190 153 101 255
1.28 2.44 3.38 193 155 106 255
1.33 2.46 3.29 192 154 105 255
0.56 3.26 3.17 224 197 144 255
0.58 3.21 3.19 240 214 163 255
0.32 3.23 3.21 241 215 166 255
0.41 3.26 3.18 237 212 158 255
1.38 2.24 3.68 200 163 118 255
1.57 2.17 3.69 201 165 112 255
1.55 2.23 3.59 192 156 104 255
1.44 2.21 3.70 173 136 91 255
1.51 2.24 3.60 189 153 105 255
1.43 2.27 3.60 196 159 113 255
1.89 2.65 2.44 240 214 153 255
2.01 2.66 2.36 242 217 158 255
2.03 2.77 2.27 254 244 182 255
1.95 2.70 2.37 251 227 166 255
2.05 2.79 2.25 254 246 184 255
2.03 2.84 2.22 248 233 173 255
1.12 2.48 3.54 183 144 95 255
1.14 2.46 3.53 177 139 90 255
1.13 2.50 3.49 194 156 107 255
1.16 2.59 3.32 199 166 115 255
-1.35 1.35 4.41 208 168 132 255
-1.27 1.56 4.32 240 200 164 255
-1.31 1.44 4.40 224 184 148 255
-1.29 1.51 4.47 221 181 145 255
0.73 2.43 4.24 208 168 117 255
0.66 2.38 4.33 194 155 105 255
0.65 2.50 4.32 215 181 135 255
-0.77 3.35 3.36 236 215 176 255
-0.80 3.31 3.36 221 198 161 255
-0.80 3.36 3.36 229 209 171 255
-1.04 1.66 4.68 182 143 104 255
-1.03 1.63 4.74 174 134 98 255
-1.09 1.62 4.65 207 167 132 255
1.01 2.07 4.26 177 139 90 255
1.18 2.07 4.20 168 130 81 255
1.56 2.06 4.08 156 118 67 255
1.54 2.06 4.05 175 135 83 255
0.74 2.48 4.13 206 166 114 255
0.76 2.44 4.13 209 169 117 255
-1.11 4.53 2.49 229 221 195 255
-1.13 4.49 2.55 218 213 185 255
-1.15 4.47 2.58 223 216 188 255
-1.12 4.41 2.69 219 199 170 255
-0.92 4.43 2.67 224 213 192 255
-0.99 4.41 2.71 207 200 174 255
1.40 1.96 4.33 159 119 70 255
1.48 1.99 4.29 155 117 68 255
1.48 1.98 4.30 147 109 60 255
2.16 1.75 6.50 74 57 40 255
2.06 1.79 6.60 119 103 78 255
1.72 1.83 5.44 159 115 69 255
1.69 1.81 5.54 156 113 70 255
-0.98 4.46 2.55 222 214 193 255
-1.11 4.44 2.60 210 203 174 255
-1.09 4.44 2.61 204 194 166 255
-1.19 1.62 4.49 216 177 138 255
-1.24 1.62 4.35 240 202 166 255
-1.25 1.58 4.44 225 185 148 255
-1.16 1.63 4.53 217 177 140 255
1.61 1.98 4.30 136 99 56 255
1.60 1.94 4.40 125 87 48 255
1.47 2.02 4.23 168 131 79 255
1.63 1.85 5.24 123 83 48 255
1.59 1.83 5.31 111 72 40 255
0.95 2.46 3.96 186 149 96 255
0.80 2.43 4.11 205 164 111 255
-0.03 4.28 2.09 222 198 155 255
-0.14 4.32 2.12 226 203 161 255
-0.35 4.37 1.94 212 190 153 255
-0.06 4.29 2.10 230 205 164 255
-0.17 4.34 2.21 226 201 160 255
-0.08 4.30 2.13 227 203 159 255
-0.96 3.26 3.35 248 232 199 255
-0.82 3.21 3.36 225 204 169 255
-0.94 3.34 3.35 239 223 189 255
1.21 2.77 2.99 213 181 122 255
1.09 2.84 3.10 211 176 116 255
1.10 2.82 3.09 210 175 114 255
1.08 2.84 3.12 212 176 118 255
1.25 2.74 2.96 206 175 116 255
1.01 2.63 3.43 206 168 111 255
1.05 2.54 3.54 198 158 107 255
1.02 2.57 3.51 203 166 113 255
1.08 2.53 3.52 190 150 100 255
0.99 2.61 3.47 203 164 110 255
0.30 3.62 2.89 237 213 162 255
0.16 3.62 2.99 236 208 160 255
0.27 3.66 2.83 245 217 169 255
0.24 3.64 2.90 239 213 162 255
1.27 2.03 4.19 192 152 102 255
1.35 1.82 5.26 121 83 45 255
1.34 1.82 5.27 122 84 46 255
1.38 1.82 5.31 120 82 44 255
1.31 1.82 5.30 122 84 45 255
1.29 1.81 5.22 111 73 36 255
1.20 1.80 5.26 114 75 42 255
1.86 1.97 4.32 172 134 87 255
1.85 1.95 4.36 171 131 82 255
1.88 2.03 4.15 174 136 86 255
1.72 1.99 4.27 126 91 51 255
1.92 1.98 4.28 180 140 88 255
1.94 1.98 4.29 180 139 87 255
1.15 2.40 3.63 188 150 101 255
1.24 2.32 3.65 198 166 115 255
1.17 2.42 3.56 191 153 104 255
1.23 2.27 3.76 192 159 108 255
1.22 2.36 3.59 200 167 116 255
1.67 2.04 4.13 150 114 69 255
1.77 2.05 4.09 140 105 58 255
1.73 2.05 4.08 158 124 78 255
-1.14 4.20 2.96 227 204 170 255
-1.03 4.14 3.02 224 202 164 255
-1.08 4.13 3.03 230 208 171 255
-1.15 4.18 2.98 223 200 166 255
1.36 2.09 4.08 200 159 113 255
1.27 2.15 3.97 164 129 83 255
1.23 2.12 4.08 168 134 86 255
1.38 2.07 4.12 187 146 98 255
1.73 2.28 3.31 199 161 102 255
1.70 2.32 3.22 189 153 95 255
1.82 2.27 3.21 206 166 96 255
1.67 2.34 3.15 200 163 107 255
1.81 2.07 4.00 152 116 67 255
1.69 2.08 3.96 147 110 61 255
1.83 2.12 3.81 161 124 76 255
1.85 2.12 3.84 159 123 75 255
0.73 3.09 3.16 240 215 161 255
0.63 3.03 3.21 240 213 160 255
-0.81 3.93 3.17 233 211 172 255
-0.81 3.80 3.23 220 199 162 255
-0.79 3.75 3.25 224 203 162 255
-0.87 3.97 3.15 230 208 171 255
-0.94 3.93 3.17 225 205 172 255
1.99 1.81 6.79 124 106 84 255
2.00 1.82 6.70 117 100 74 255
-0.07 3.63 3.13 236 210 160 255
0.03 3.69 3.07 239 212 164 255
1.92 1.84 6.57 126 101 70 255
2.01 1.81 6.59 97 80 52 255
1.78 2.25 3.41 202 162 104 255
1.66 2.18 3.62 190 153 101 255
1.70 2.20 3.55 198 160 108 255
1.70 2.17 3.62 190 153 100 255
1.85 2.17 3.54 183 144 89 255
0.82 3.30 2.99 247 224 172 255
0.80 3.29 3.01 247 225 175 255
0.90 3.26 2.94 250 226 173 255
0.70 3.27 3.09 245 223 174 255
0.91 3.28 2.93 251 226 173 255
0.70 3.34 3.06 239 218 165 255
0.85 3.67 2.68 241 216 164 255
0.84 3.57 2.80 246 220 169 255
-1.04 3.94 3.16 237 220 190 255
-0.99 3.97 3.16 238 219 187 255
-1.02 3.98 3.15 238 219 187 255
-0.88 3.85 3.21 235 216 183 255
-1.06 3.88 3.18 234 218 189 255
-1.17 3.83 3.19 231 217 190 255
-1.06 3.74 3.23 237 220 190 255
-1.15 3.81 3.20 234 219 192 255
-1.08 3.94 3.16 235 218 189 255
0.87 2.66 3.77 195 159 110 255
0.82 2.69 3.73 177 139 92 255
0.86 2.66 3.76 193 157 109 255
0.90 2.67 3.57 196 160 110 255
0.79 3.10 3.12 239 214 160 255
0.77 3.12 3.13 243 218 165 255
0.83 3.06 3.11 239 210 155 255
-1.08 4.00 3.12 240 221 192 255
-1.29 3.89 3.12 231 214 186 255
-1.13 3.99 3.11 237 217 191 255
-1.27 3.83 3.17 233 216 188 255
-1.17 3.88 3.16 229 213 183 255
-1.10 3.93 3.16 234 217 189 255
-1.14 4.11 3.03 235 211 174 255
-1.15 4.11 3.03 235 211 173 255
-0.67 4.19 3.02 226 202 157 255
-0.76 4.16 3.03 213 189 148 255
-0.81 4.21 2.99 230 209 166 255
-1.73 3.93 2.74 207 187 161 255
-1.68 4.01 2.74 206 185 153 255
-1.66 3.90 2.84 212 192 165 255
-1.62 3.92 2.86 221 201 174 255
-1.71 3.97 2.73 208 187 157 255
-1.64 3.93 2.84 218 198 171 255
-1.67 3.91 2.81 207 187 162 255
-1.05 3.69 3.25 223 203 170 255
-1.02 3.57 3.31 229 209 174 255
-0.98 3.53 3.33 232 212 178 255
-1.11 3.68 3.25 226 206 173 255
-0.85 3.69 3.27 250 230 192 255
-0.95 3.67 3.27 231 209 172 255
-1.26 3.69 3.23 247 230 201 255
-1.02 3.55 3.32 230 210 176 255
-0.88 3.58 3.32 235 211 173 255
-0.87 3.54 3.33 233 211 172 255
-0.85 3.61 3.31 245 224 185 255
1.53 1.85 7.02 115 99 76 255
1.34 1.86 7.01 114 97 79 255
1.42 1.84 6.84 101 83 63 255
1.29 1.86 6.83 109 88 69 255
1.21 1.87 6.82 130 109 88 255
1.25 2.83 2.88 212 181 120 255
1.15 2.93 2.92 221 190 129 255
1.22 2.96 2.81 227 194 129 255
1.25 2.96 2.78 232 200 136 255
1.24 2.81 2.91 212 180 119 255
-1.04 1.84 4.17 227 188 147 255
-1.09 1.87 4.06 230 196 158 255
-0.95 1.91 4.12 223 185 144 255
-1.04 1.85 4.14 227 188 147 255
1.16 2.33 3.79 182 146 96 255
1.09 2.36 3.89 190 153 101 255
1.05 2.46 3.73 186 144 96 255
1.11 2.34 3.87 179 141 92 255
1.07 2.43 3.74 176 134 86 255
1.13 2.39 3.69 183 143 95 255
-1.14 1.75 4.21 235 199 165 255
-1.23 1.65 4.29 243 207 173 255
-0.93 1.85 4.26 222 184 144 255
-1.02 1.79 4.27 219 180 137 255
-1.00 1.79 4.28 212 172 130 255
0.93 2.53 3.90 188 148 96 255
0.90 2.61 3.84 201 165 113 255
0.92 2.54 3.89 188 148 94 255
-1.32 1.56 4.25 224 186 149 255
-1.37 1.36 4.28 219 179 143 255
-1.35 1.57 4.19 247 211 175 255
-1.38 1.51 4.19 236 199 163 255
2.33 1.98 3.96 179 137 86 255
2.46 1.90 3.95 159 119 65 255
2.36 1.86 4.17 144 102 52 255
2.37 1.93 4.01 179 137 87 255
2.35 1.98 3.95 183 141 90 255
2.36 1.95 3.98 179 137 87 255
2.45 1.92 3.92 178 137 85 255
1.80 1.82 5.74 179 138 94 255
1.80 1.83 5.66 163 125 77 255
-0.97 1.80 4.34 214 172 132 255
-1.03 1.76 4.36 213 174 131 255
-0.97 1.80 4.35 215 173 133 255
-1.05 1.75 4.33 219 180 137 255
-1.16 1.67 4.39 228 190 152 255
0.79 3.38 2.96 250 229 178 255
0.84 3.40 2.91 251 226 170 255
0.70 3.47 2.99 241 217 161 255
0.78 3.46 2.93 253 233 180 255
0.85 3.45 2.88 245 220 165 255
-0.21 1.61 6.45 172 139 104 255
-0.24 1.58 6.53 170 139 103 255
0.14 1.77 6.65 170 136 109 255
0.22 1.80 6.74 151 118 88 255
0.17 1.75 6.91 179 147 122 255
0.20 1.77 6.88 164 132 107 255
0.15 1.75 6.81 177 143 116 255
0.04 1.73 6.59 171 136 108 255
-1.14 1.49 4.77 202 166 132 255
-1.16 1.48 4.73 193 155 121 255
-1.22 1.40 4.71 197 161 125 255
0.06 1.75 6.37 164 126 91 255
0.08 1.75 6.50 160 123 96 255
0.13 1.79 6.32 159 119 83 255
0.03 1.73 6.51 162 125 97 255
-0.70 2.86 3.52 232 207 160 255
-0.84 2.66 3.64 237 216 178 255
-0.77 2.86 3.50 247 224 182 255
-0.91 2.83 3.50 234 216 179 255
-0.84 2.78 3.55 251 232 191 255
-0.82 2.71 3.61 244 222 182 255
-1.14 1.47 4.88 198 164 129 255
-1.21 1.38 4.88 203 171 134 255
-1.21 1.37 4.97 202 169 134 255
-1.25 1.34 4.84 203 169 132 255
-1.10 1.51 4.90 180 144 110 255
0.41 3.64 2.83 253 230 182 255
0.29 3.67 2.81 242 218 168 255
0.44 3.73 2.72 242 220 175 255
0.32 3.75 2.72 243 222 178 255
0.35 3.66 2.82 251 226 179 255
0.71 1.86 6.62 118 89 57 255
0.70 1.87 6.40 128 93 63 255
0.69 1.86 6.77 140 111 79 255
0.68 1.87 6.61 117 87 53 255
0.72 1.87 6.45 124 91 60 255
0.35 3.93 2.61 230 207 171 255
0.39 3.94 2.55 221 198 159 255
0.30 3.96 2.60 219 198 161 255
0.33 3.96 2.57 219 200 160 255
0.43 3.96 2.44 231 207 161 255
0.41 3.90 2.60 231 207 168 255
0.70 3.59 2.84 238 212 154 255
0.63 3.52 2.97 239 212 158 255
0.76 3.60 2.80 252 228 174 255
0.68 3.51 2.97 241 215 158 255
0.18 3.82 2.76 231 212 170 255
0.11 3.89 2.79 232 213 171 255
0.14 3.95 2.71 221 202 165 255
0.14 3.85 2.78 229 210 167 255
0.17 3.75 2.81 250 228 181 255
-1.07 1.46 5.26 155 124 95 255
-1.10 1.45 5.14 158 127 96 255
-1.12 1.43 5.12 174 142 111 255
-1.11 1.43 5.23 150 120 91 255
-1.01 1.51 5.30 135 104 75 255
-0.96 2.31 2.70 197 165 141 255
-0.91 2.40 2.64 201 169 143 255
-0.89 2.45 2.64 166 135 107 255
-0.95 2.34 2.71 197 165 141 255
1.97 1.75 5.56 166 134 87 255
-1.13 1.62 4.58 215 175 139 255
-1.23 1.53 4.57 214 174 138 255
-1.18 1.61 4.53 215 175 139 255
0.58 3.58 2.89 241 215 162 255
0.51 3.58 2.89 251 227 179 255
0.67 3.60 2.84 237 208 148 255
0.57 3.48 3.05 245 221 172 255
0.62 3.52 2.98 240 214 161 255
-1.05 2.28 2.78 168 135 104 255
-1.17 2.23 2.81 175 142 110 255
-1.19 2.23 2.85 181 148 116 255
-1.16 2.19 2.71 195 164 135 255
-0.13 1.67 6.59 182 147 115 255
-0.14 1.66 6.59 177 143 111 255
0.83 3.68 2.67 243 218 164 255
0.86 3.77 2.50 249 221 171 255
-1.89 1.83 2.98 177 143 106 255
-1.80 1.84 2.91 200 167 134 255
-1.86 1.81 2.93 197 164 129 255
-1.97 1.74 2.94 204 171 138 255
1.65 1.81 5.65 149 111 70 255
1.74 1.82 5.75 163 123 80 255
1.59 1.81 5.55 129 90 52 255
1.64 1.82 5.71 142 104 66 255
-0.83 2.63 3.67 242 219 178 255
-1.45 0.71 5.80 166 124 86 255
-1.49 0.56 5.86 171 129 91 255
-1.45 0.70 5.82 161 119 81 255
-1.45 0.62 5.96 160 121 82 255
-1.52 0.49 5.85 170 128 90 255
-1.20 1.44 4.69 209 171 135 255
-1.27 1.42 4.63 198 158 122 255
-1.22 1.41 4.68 194 157 122 255
1.82 1.84 6.73 116 99 74 255
1.90 1.84 6.75 139 121 97 255
1.90 1.85 6.73 143 124 99 255
1.35 2.80 2.77 212 180 121 255
1.29 2.83 2.83 211 181 121 255
1.36 2.86 2.71 225 193 134 255
1.36 2.76 2.80 216 184 125 255
1.28 2.86 2.82 218 187 125 255
1.33 2.85 2.76 221 191 131 255
1.89 1.81 6.38 165 133 94 255
1.84 1.75 6.18 185 149 107 255
1.88 1.74 6.12 184 149 106 255
1.90 1.75 6.16 184 149 107 255
1.85 1.79 6.30 169 137 96 255
1.86 1.74 6.13 188 153 110 255
-1.32 2.09 2.68 227 196 167 255
-1.47 2.03 2.72 223 189 160 255
-1.40 2.08 2.76 214 183 152 255
-1.38 2.07 2.70 214 181 153 255
-2.04 1.71 2.96 211 181 147 255
-1.98 1.84 3.07 191 153 117 255
-1.52 1.24 4.10 243 209 174 255
-1.48 1.26 4.16 216 178 139 255
-1.49 1.43 4.01 244 211 173 255
-1.48 1.31 4.11 227 189 152 255
-1.69 1.07 3.97 250 215 177 255
-1.47 1.44 4.04 233 198 161 255
-1.60 1.14 4.06 244 212 174 255
-1.52 1.38 4.01 244 211 175 255
-1.52 1.35 4.03 240 206 170 255
-1.60 1.21 4.00 252 222 186 255
-1.53 1.28 4.07 253 220 185 255
-1.46 1.28 4.18 216 177 138 255
-1.69 1.06 3.98 250 215 177 255
-1.41 1.29 4.25 238 199 161 255
-1.39 1.39 4.23 224 186 149 255
-1.41 1.45 4.15 214 176 140 255
-1.43 1.55 4.05 236 200 164 255
-1.41 1.40 4.18 227 189 153 255
-1.66 1.90 2.68 229 199 171 255
-1.74 1.84 2.64 204 172 147 255
-1.63 1.92 2.64 229 199 171 255
-1.69 1.87 2.57 211 180 154 255
-1.70 1.88 2.77 213 185 155 255
-1.38 1.20 4.60 192 152 116 255
-1.40 1.21 4.32 217 178 139 255
-1.37 1.22 4.50 201 162 123 255
-1.42 1.14 4.55 200 159 120 255
-1.53 0.98 4.33 238 200 163 255
-1.51 0.93 4.43 230 191 152 255
-1.50 0.95 4.44 220 181 142 255
-1.56 0.95 4.32 245 209 171 255
-1.55 0.89 4.40 234 195 156 255
-1.54 0.86 4.46 232 190 150 255
-1.47 1.03 4.39 225 183 145 255
0.46 3.03 3.27 219 192 137 255
0.46 2.95 3.29 240 212 163 255
-1.32 1.32 4.57 203 160 125 255
-1.35 1.36 4.42 211 171 135 255
-1.31 1.34 4.58 201 159 124 255
-1.30 1.32 4.64 181 138 103 255
-1.32 1.29 4.60 188 145 110 255
-1.44 1.06 4.46 206 164 125 255
-1.48 0.91 4.52 207 165 127 255
-1.49 0.88 4.56 215 173 135 255
-1.44 1.07 4.50 204 162 122 255
2.02 1.71 5.71 163 130 87 255
1.98 1.72 5.76 146 112 66 255
2.07 1.68 5.69 120 92 58 255
-1.53 1.13 4.18 235 199 163 255
-1.58 1.10 4.12 247 213 176 255
-1.44 1.19 4.27 201 162 123 255
-1.61 0.90 4.28 250 216 178 255
-1.62 0.96 4.20 248 215 176 255
-1.53 1.12 4.19 232 196 160 255
-1.54 1.01 4.28 245 208 172 255
-1.53 1.09 4.21 241 204 168 255
-1.62 0.98 4.17 249 216 178 255
-1.47 0.93 4.64 199 157 117 255
-1.47 0.94 4.60 193 151 111 255
-1.46 0.99 4.66 195 153 113 255
-1.75 3.72 2.76 225 205 180 255
-1.66 3.69 2.80 205 183 152 255
-1.65 3.76 2.88 203 181 156 255
-1.48 2.16 3.03 189 158 129 255
-1.52 2.16 3.05 197 164 133 255
-1.69 2.14 3.15 174 140 103 255
-1.52 2.19 3.12 204 171 138 255
-1.68 2.16 3.18 172 137 99 255
1.89 1.78 5.89 184 154 104 255
2.03 1.73 6.05 141 112 77 255
2.04 1.72 5.99 128 99 68 255
2.02 1.72 5.93 155 126 90 255
2.06 1.72 6.05 118 91 61 255
1.99 1.73 5.93 160 131 88 255
1.96 1.76 5.99 180 149 102 255
-1.88 2.04 3.20 197 163 126 255
-1.80 1.96 3.04 189 159 123 255
-1.82 1.97 3.07 188 157 121 255
-1.91 1.89 3.07 199 163 128 255
-1.88 2.00 3.16 197 163 126 255
-0.15 4.00 3.09 233 212 167 255
-0.11 3.85 3.11 226 198 150 255
-0.15 3.84 3.14 230 202 153 255
2.19 1.91 4.26 161 117 70 255
2.24 1.93 4.17 164 120 71 255
2.18 2.01 4.09 188 147 93 255
2.17 1.93 4.24 160 116 67 255
2.30 1.86 4.24 158 116 66 255
2.26 1.92 4.16 169 127 77 255
2.25 1.90 4.21 169 127 77 255
2.24 1.97 4.10 168 126 75 255
1.55 1.81 5.85 113 74 43 255
1.44 1.82 5.70 106 72 35 255
1.42 1.82 5.67 112 76 41 255
1.41 1.82 5.61 116 80 44 255
1.43 1.82 5.62 115 79 43 255
1.44 1.82 5.61 114 78 42 255
1.53 1.81 5.89 119 81 50 255
1.53 1.81 5.84 114 75 44 255
1.84 1.82 5.67 160 123 73 255
1.92 1.78 5.62 169 135 87 255
-1.09 1.51 4.94 166 130 96 255
-1.07 1.50 5.05 148 111 82 255
-1.04 1.53 5.05 166 129 102 255
-1.11 1.45 5.07 179 144 112 255
-1.46 1.96 2.57 232 202 172 255
-1.47 1.98 2.60 231 200 171 255
-1.49 1.96 2.58 233 204 174 255
-1.56 1.92 2.55 227 201 168 255
-1.63 1.88 2.51 225 195 168 255
0.24 1.83 5.80 181 142 99 255
0.20 1.82 5.82 177 137 94 255
0.23 1.81 6.02 152 113 72 255
0.35 1.84 6.05 167 128 87 255
0.22 1.80 6.09 141 102 64 255
0.18 1.81 5.89 180 138 96 255
0.27 1.83 5.87 180 141 98 255
0.35 1.84 6.05 168 129 88 255
0.13 3.74 2.88 250 228 179 255
0.20 3.71 2.80 246 223 174 255
0.14 3.64 3.00 238 210 162 255
-0.27 1.58 6.46 191 161 125 255
-0.36 1.58 6.32 191 163 124 255
-0.26 1.57 6.51 183 153 117 255
-0.36 1.55 6.41 204 179 140 255
0.63 2.71 3.43 220 187 133 255
0.76 2.82 3.32 212 177 120 255
0.75 2.79 3.35 213 178 122 255
0.80 2.76 3.38 233 199 144 255
0.78 2.76 3.38 229 196 143 255
-1.56 1.98 2.76 235 201 173 255
-1.62 1.96 2.84 237 211 181 255
-1.55 1.99 2.73 224 190 162 255
-1.70 1.89 2.84 212 185 155 255
-1.51 2.05 2.82 210 177 146 255
-1.80 2.05 3.14 192 158 125 255
-1.59 2.06 2.96 195 162 131 255
-1.58 2.07 2.96 198 165 134 255
-1.71 2.02 3.03 186 156 122 255
-1.67 1.94 2.89 214 187 157 255
-1.66 2.09 3.06 199 164 133 255
-1.59 2.07 2.97 199 166 135 255
-1.78 2.12 3.21 176 141 104 255
-1.59 2.02 2.91 193 164 132 255
1.58 1.79 6.26 125 95 70 255
1.73 1.78 6.24 154 122 90 255
1.80 1.80 6.33 162 130 92 255
1.70 1.76 6.18 145 112 82 255
1.65 1.80 6.31 91 62 39 255
0.11 1.80 5.83 170 128 90 255
-0.05 1.76 5.83 150 108 68 255
0.01 1.76 5.97 158 116 79 255
0.06 1.78 5.92 166 124 86 255
0.06 1.77 5.96 161 119 80 255
0.16 1.81 5.81 171 129 87 255
0.14 1.81 5.77 182 140 98 255
-1.96 1.98 3.22 203 169 133 255
-1.95 1.91 3.12 196 159 124 255
-1.86 2.09 3.25 193 161 123 255
-2.00 1.85 3.10 194 157 122 255
-1.68 1.90 3.54 228 195 160 255
-1.83 2.10 3.32 193 159 121 255
-1.78 2.08 3.36 203 169 131 255
-1.63 1.96 3.51 218 184 147 255
-1.75 1.97 3.46 209 175 138 255
-1.98 1.65 3.52 241 211 177 255
-1.99 1.75 3.49 230 200 164 255
-2.03 1.66 3.50 229 199 163 255
-2.16 1.43 3.51 245 219 184 255
-1.91 2.07 3.28 193 159 122 255
-2.11 1.81 3.17 201 170 141 255
-2.22 1.84 3.34 215 185 154 255
-2.11 1.93 3.33 196 166 132 255
-2.19 1.82 3.27 205 175 148 255
-1.99 1.97 3.24 200 166 130 255
-1.97 2.04 3.31 197 163 126 255
-2.19 1.39 3.51 239 209 177 255
-2.27 1.26 3.55 224 189 151 255
-2.24 1.23 3.58 235 200 164 255
-2.22 1.25 3.57 236 201 165 255
-2.32 1.25 3.53 236 200 160 255
-2.14 1.38 3.54 220 191 157 255
-2.28 1.34 3.50 240 215 175 255
-2.46 1.35 3.38 210 180 149 255
-2.50 1.30 3.34 214 178 144 255
-2.51 1.25 3.35 225 192 155 255
-2.58 1.20 3.30 208 170 133 255
-2.48 1.26 3.39 228 197 159 255
2.04 2.43 2.58 213 181 122 255
2.03 2.42 2.62 211 179 119 255
1.99 2.46 2.59 213 181 120 255
1.95 2.52 2.53 221 190 133 255
-2.41 1.37 3.42 243 216 182 255
-2.34 1.44 3.44 243 221 185 255
-2.35 1.49 3.40 237 211 178 255
-2.46 1.51 3.31 196 161 130 255
-2.50 1.36 3.01 208 166 134 255
-2.52 1.32 3.06 186 143 111 255
-2.53 1.31 3.10 177 134 100 255
-2.52 1.34 3.12 175 135 100 255
-2.35 1.63 3.25 200 167 135 255
-2.37 1.62 3.27 196 161 129 255
-2.37 1.54 3.10 203 167 135 255
-2.46 1.42 3.02 195 156 123 255
-2.48 1.39 3.00 195 155 123 255
-2.47 1.49 3.19 200 161 130 255
-2.46 1.39 2.96 169 129 94 255
-2.43 1.42 2.95 162 122 89 255
-2.34 1.47 2.88 181 137 106 255
-2.40 1.38 2.81 175 131 99 255
-2.19 1.77 3.22 216 189 160 255
-2.24 1.74 3.25 212 184 155 255
-2.22 1.63 3.01 204 169 139 255
-2.08 1.66 2.93 199 170 139 255
-2.14 1.69 3.02 191 161 129 255
-2.19 1.67 3.04 194 162 131 255
-1.92 1.74 3.52 225 197 160 255
-1.89 1.74 3.53 221 194 158 255
-2.26 1.60 3.00 200 165 135 255
-2.25 1.66 3.11 184 153 124 255
-2.26 1.60 3.00 198 162 133 255
1.42 2.05 4.15 184 144 93 255
1.36 2.15 3.93 191 152 105 255
1.50 2.10 3.98 190 150 98 255
1.38 2.15 3.92 191 152 104 255
1.42 2.05 4.14 185 144 94 255
1.94 2.22 3.25 191 145 83 255
1.98 2.21 3.26 171 125 66 255
-1.87 1.74 2.34 193 161 138 255
-1.87 1.80 2.31 204 174 150 255
-1.87 1.83 2.30 214 184 160 255
-1.91 1.72 2.30 192 160 137 255
-1.80 1.91 2.36 216 190 163 255
-1.81 1.78 2.63 185 155 127 255
-1.94 1.66 2.72 177 147 119 255
-1.87 1.72 2.62 174 143 115 255
-1.77 1.82 2.67 209 179 151 255
-1.77 1.81 2.61 196 164 139 255
-1.80 1.80 2.79 211 180 151 255
-1.78 1.82 2.82 196 165 134 255
-1.95 1.82 2.20 218 187 160 255
-1.89 1.88 2.25 221 191 165 255
-2.01 1.77 2.15 219 191 160 255
-1.91 1.83 2.25 220 189 164 255
-1.99 1.89 2.14 221 199 175 255
-1.97 1.60 2.35 155 121 94 255
-1.97 1.60 2.35 158 124 97 255
-1.96 1.59 2.45 188 153 125 255
-2.01 1.54 2.42 193 157 125 255
-2.31 1.42 3.47 239 219 182 255
-1.30 2.04 2.56 227 196 167 255
-1.31 2.04 2.57 226 195 166 255
-1.37 2.04 2.63 222 188 160 255
-1.39 2.01 2.58 225 194 165 255
-1.53 2.17 3.46 210 177 135 255
-1.51 2.21 3.46 206 174 131 255
-1.67 2.18 3.38 203 168 130 255
-1.76 2.13 3.34 198 163 125 255
-1.69 2.10 3.40 189 155 117 255
-1.63 2.13 3.43 181 147 109 255
-1.58 2.19 3.43 187 152 114 255
-1.54 2.08 3.51 213 179 141 255
-2.24 1.68 3.15 181 151 122 255
-2.33 1.59 3.13 195 160 130 255
-1.75 2.19 3.29 184 148 111 255
-1.66 2.20 3.36 202 167 129 255
-1.57 2.29 3.31 199 161 122 255
-1.58 2.30 3.29 200 162 123 255
2.18 2.26 3.15 191 149 89 255
2.07 2.21 3.29 180 138 82 255
2.16 2.25 3.19 188 146 86 255
-2.51 1.19 2.67 201 162 131 255
-2.58 1.12 2.63 202 161 131 255
-2.62 1.07 2.67 199 161 131 255
0.05 3.14 3.30 213 182 135 255
-0.09 3.31 3.27 222 193 144 255
0.04 3.22 3.27 228 200 152 255
0.20 3.23 3.23 228 200 153 255
0.01 3.28 3.25 234 208 159 255
2.18 2.26 3.12 189 147 87 255
2.08 2.24 3.08 189 145 84 255
-2.54 1.31 3.19 176 136 101 255
-2.58 1.17 3.13 198 156 121 255
-2.57 1.20 3.17 195 154 118 255
-2.50 1.45 3.24 173 136 101 255
2.24 2.24 2.86 216 176 115 255
2.14 2.27 2.98 190 148 81 255
2.17 2.25 2.88 192 151 85 255
2.10 2.27 2.96 182 139 72 255
1.83 1.80 5.89 165 132 84 255
1.79 1.74 6.10 172 135 90 255
1.81 1.75 6.05 169 135 87 255
1.89 1.76 5.99 187 155 106 255
1.56 1.79 6.21 112 80 52 255
1.64 1.76 6.16 104 74 45 255
1.49 1.80 6.10 121 91 57 255
1.52 1.79 6.16 117 85 52 255
-1.78 1.80 2.52 191 160 132 255
-1.83 1.74 2.50 169 135 108 255
-1.98 1.57 2.45 179 143 114 255
-1.98 1.58 2.48 170 134 105 255
-1.98 1.59 2.55 186 151 123 255
-0.90 2.56 2.80 227 198 161 255
-0.95 2.50 2.85 206 176 141 255
-0.93 2.44 2.75 193 162 131 255
-0.98 2.46 2.88 198 168 134 255
-0.99 2.34 2.81 156 123 90 255
-0.99 2.36 2.82 156 123 90 255
1.60 1.88 4.83 112 76 40 255
1.53 1.86 4.91 105 70 33 255
1.55 1.88 4.75 111 75 39 255
1.68 1.91 4.71 112 74 36 255
1.70 2.70 2.52 232 201 142 255
1.68 2.79 2.46 227 193 132 255
1.75 2.84 2.37 232 202 139 255
1.66 2.94 2.34 209 175 111 255
1.65 2.78 2.48 224 190 128 255
1.82 2.68 2.45 237 211 150 255
1.68 2.83 2.42 225 191 128 255
1.73 2.77 2.44 233 203 140 255
1.75 2.77 2.42 234 206 143 255
1.80 2.64 2.50 232 203 143 255
1.70 2.91 2.35 214 180 116 255
2.28 1.70 6.30 73 60 44 255
2.16 1.72 6.22 104 84 62 255
2.03 1.77 6.30 160 132 97 255
2.05 1.74 6.17 131 104 68 255
2.16 1.71 6.18 96 77 55 255
2.12 1.75 6.35 79 61 40 255
2.02 1.77 6.31 162 134 99 255
-2.41 1.61 3.30 198 163 131 255
-2.34 1.68 3.30 211 179 148 255
1.21 1.84 6.31 113 83 57 255
1.34 1.82 6.30 111 81 53 255
1.18 1.83 6.21 117 83 58 255
1.45 1.81 6.30 123 92 64 255
1.42 1.82 6.36 108 78 52 255
1.31 1.84 6.40 118 90 66 255
2.25 2.03 3.95 182 141 89 255
2.34 2.04 3.75 203 165 103 255
2.38 2.09 3.53 197 160 90 255
2.28 2.02 3.95 189 146 95 255
2.32 2.06 3.73 202 166 101 255
2.39 2.00 3.81 178 139 83 255
2.34 2.03 3.80 195 156 97 255
2.45 1.99 3.72 179 141 83 255
-1.34 2.14 2.82 175 142 109 255
-1.30 2.18 2.86 179 146 113 255
-1.30 2.13 2.74 196 165 133 255
-1.30 2.15 2.80 184 151 116 255
-2.40 1.46 2.98 181 140 108 255
-2.46 1.39 2.97 175 135 100 255
-2.40 1.47 2.99 186 147 114 255
2.07 1.99 4.20 178 137 83 255
2.01 1.98 4.25 175 134 80 255
2.07 1.99 4.19 178 137 83 255
1.99 2.01 4.18 179 140 85 255
2.03 2.01 4.17 180 141 86 255
2.11 2.04 4.02 186 147 90 255
-2.39 1.27 2.22 218 177 143 255
-2.29 1.35 2.22 229 190 157 255
-2.26 1.39 2.21 227 191 157 255
-1.10 2.39 3.04 187 154 117 255
-1.16 2.34 3.02 168 134 99 255
-1.25 2.33 3.12 175 139 103 255
-1.03 2.19 2.52 232 205 175 255
-1.03 2.23 2.63 226 199 173 255
-0.99 2.25 2.64 201 172 149 255
-1.00 2.26 2.68 188 157 133 255
-1.10 2.16 2.56 240 211 181 255
-1.85 1.78 2.87 214 181 148 255
-1.98 1.63 2.73 184 150 122 255
-1.93 1.73 2.88 215 184 153 255
-1.92 1.72 2.84 215 184 153 255
-1.83 1.78 2.85 210 177 144 255
1.90 1.79 5.54 160 121 77 255
-0.02 4.29 2.18 221 197 153 255
-0.04 4.30 2.20 221 197 152 255
-0.07 4.30 2.18 222 198 154 255
-0.50 4.51 2.33 216 196 162 255
-0.52 4.51 2.31 219 199 164 255
-0.46 4.51 2.39 222 202 167 255
2.10 2.33 2.72 192 150 89 255
2.00 2.39 2.71 211 177 118 255
2.09 2.38 2.64 210 173 115 255
-0.42 1.51 6.56 205 177 137 255
-0.44 1.52 6.44 193 162 124 255
-0.41 1.52 6.48 195 166 129 255
-0.40 1.52 6.52 202 175 138 255
-2.07 1.51 2.28 166 131 99 255
-2.11 1.46 2.34 180 144 111 255
-2.15 1.44 2.28 168 136 105 255
-0.95 2.27 2.49 208 182 153 255
-0.94 2.30 2.52 205 179 152 255
-0.97 2.25 2.54 217 191 164 255
-2.06 1.66 3.49 227 197 161 255
-2.14 1.48 3.50 231 201 167 255
-2.02 1.76 3.48 229 199 165 255
0.16 4.20 1.99 225 201 155 255
0.11 4.22 2.04 218 194 148 255
0.11 4.22 2.08 224 200 154 255
-1.09 2.31 2.89 165 132 99 255
-1.16 2.28 2.90 157 124 91 255
-1.12 2.29 2.88 173 140 107 255
-1.09 2.31 2.89 164 131 98 255
1.84 2.55 2.58 221 192 132 255
1.75 2.51 2.71 215 182 125 255
1.80 2.45 2.81 215 180 126 255
0.37 1.84 6.85 124 92 66 255
0.35 1.85 6.74 149 115 90 255
0.36 1.84 6.83 135 103 78 255
0.25 1.79 6.91 171 139 114 255
-1.83 2.03 3.37 212 178 140 255
-1.92 1.90 3.43 231 200 164 255
-1.88 1.87 3.47 213 178 140 255
-1.90 1.99 3.37 208 176 138 255
-2.23 1.54 3.45 241 217 181 255
-2.11 1.46 2.38 180 144 110 255
-2.10 1.48 2.42 206 170 136 255
-2.13 1.46 2.40 190 154 120 255
-2.60 1.00 3.17 227 189 157 255
-2.60 1.10 3.23 218 176 144 255
-2.57 1.04 3.28 220 183 148 255
-2.55 0.88 3.25 227 193 158 255
-1.37 2.20 2.97 184 150 117 255
-1.36 2.21 3.00 174 140 105 255
-1.30 2.23 2.96 191 157 122 255
-1.47 2.12 2.94 158 124 96 255
0.85 1.86 6.68 98 71 46 255
0.92 1.88 6.70 105 78 56 255
0.81 1.86 6.72 112 85 59 255
-2.65 0.85 2.91 194 153 121 255
-2.62 0.90 3.02 189 149 118 255
1.46 1.82 5.50 108 72 36 255
1.50 1.82 5.40 106 69 36 255
1.50 1.82 5.46 110 74 40 255
1.32 2.63 3.03 199 167 112 255
1.35 2.58 3.05 215 180 124 255
1.45 2.65 2.79 218 183 124 255
1.29 2.68 3.00 219 188 133 255
1.40 2.60 2.95 212 176 118 255
2.02 2.32 2.83 203 164 101 255
2.00 2.35 2.79 199 163 101 255
1.90 2.39 2.84 205 168 110 255
-0.06 4.32 2.37 213 189 143 255
-0.16 4.35 2.27 219 195 151 255
-0.04 4.33 2.46 220 196 150 255
0.25 3.07 3.26 239 215 169 255
0.29 3.14 3.24 240 214 168 255
0.26 3.03 3.27 240 216 170 255
-0.64 1.36 6.52 184 149 115 255
-0.59 1.41 6.49 190 157 122 255
-0.55 1.44 6.48 181 147 112 255
-0.65 1.36 6.50 184 149 117 255
-0.47 1.54 6.30 189 157 118 255
-1.91 0.34 4.51 223 181 139 255
-1.99 0.31 4.43 215 172 128 255
-1.98 0.29 4.48 210 165 123 255
-1.87 0.35 4.56 213 170 129 255
-1.86 0.42 4.43 218 176 136 255
-1.96 0.29 4.52 209 166 123 255
-2.50 1.33 2.13 182 139 107 255
-2.46 1.25 2.19 178 137 106 255
-2.44 1.32 2.14 158 117 85 255
-2.60 1.46 2.03 199 161 119 255
0.32 4.12 2.12 221 197 151 255
0.32 4.11 2.07 228 204 158 255
-2.54 1.26 2.99 191 147 115 255
-2.54 1.25 2.95 178 134 105 255
-2.53 1.27 2.94 171 127 95 255
0.20 4.08 2.47 227 202 160 255
0.27 4.12 2.25 225 198 153 255
0.26 4.13 2.25 227 200 155 255
0.25 4.10 2.35 225 203 156 255
0.23 4.09 2.40 228 204 160 255
2.00 1.84 5.07 144 103 53 255
2.04 1.82 5.03 140 100 55 255
2.09 1.79 5.08 137 98 59 255
2.12 1.79 4.78 138 97 53 255
2.16 1.77 5.10 119 79 47 255
2.17 1.76 4.88 111 72 33 255
-2.69 1.01 2.48 202 167 137 255
-2.62 1.08 2.50 193 156 126 255
-2.69 1.00 2.50 206 171 141 255
-2.64 1.06 2.52 200 163 134 255
-2.59 1.09 2.94 189 148 118 255
-2.59 1.02 2.95 174 133 101 255
-1.16 1.10 6.03 145 119 94 255
-1.20 1.09 5.92 153 125 100 255
-1.22 1.05 5.95 141 114 87 255
-1.14 1.13 6.04 148 122 97 255
-1.15 1.12 6.05 145 119 94 255
1.65 1.81 5.91 124 87 52 255
1.70 1.78 5.97 152 116 80 255
1.77 1.81 5.84 179 142 98 255
1.54 1.80 5.97 127 91 59 255
1.51 1.81 5.94 122 86 53 255
-2.10 1.54 2.14 219 188 157 255
-2.18 1.40 2.27 178 140 111 255
-2.11 1.49 2.25 198 165 134 255
-2.12 1.48 2.22 223 191 162 255
-0.04 1.89 5.34 177 129 80 255
-0.05 1.89 5.34 176 128 79 255
0.04 1.88 5.33 175 127 78 255
-0.11 1.91 5.32 212 167 120 255
0.05 1.89 5.32 175 127 78 255
-0.08 1.95 5.25 211 167 120 255
-0.47 2.65 3.51 243 220 178 255
-0.38 2.63 3.50 239 212 169 255
-0.51 2.50 3.63 238 201 158 255
-0.47 2.58 3.56 241 213 171 255
1.88 1.85 4.89 166 124 69 255
1.95 1.85 4.91 164 123 71 255
-0.14 2.66 3.46 233 199 155 255
-0.13 2.68 3.45 231 198 154 255
-0.20 2.63 3.47 254 223 182 255
-2.65 0.92 2.85 192 150 121 255
-2.61 0.98 2.90 202 161 131 255
0.41 2.74 3.41 236 205 151 255
0.37 2.77 3.39 242 212 161 255
0.44 2.81 3.37 238 210 160 255
0.37 2.74 3.41 248 217 164 255
-0.85 2.11 3.90 246 214 173 255
-0.95 2.11 3.86 240 211 174 255
-0.84 2.09 3.92 240 207 168 255
-0.88 2.04 3.97 240 206 168 255
0.71 2.69 3.48 225 189 139 255
0.64 2.70 3.45 212 180 127 255
0.25 2.57 3.56 222 184 135 255
0.28 2.55 3.59 218 178 129 255
0.27 2.50 3.65 220 178 129 255
-1.48 0.72 5.21 178 136 95 255
-1.47 0.74 5.16 184 141 100 255
-1.49 0.68 5.23 183 140 98 255
-1.49 0.68 5.12 186 143 101 255
-2.58 1.05 3.00 176 135 103 255
-2.59 1.04 3.01 183 142 110 255
-0.74 2.19 3.87 235 197 152 255
-0.88 2.24 3.82 236 209 166 255
-0.81 2.16 3.86 242 209 166 255
-0.82 2.20 3.85 245 213 172 255
-0.54 2.29 3.78 228 183 134 255
-0.54 2.32 3.76 228 184 137 255
-0.63 2.21 3.85 233 188 139 255
-0.53 2.33 3.76 228 185 138 255
0.21 4.11 2.34 223 203 154 255
0.08 4.25 2.36 230 206 158 255
0.18 4.16 2.32 224 203 153 255
0.20 4.17 2.25 231 207 160 255
0.12 4.21 2.35 221 197 149 255
0.80 2.69 3.72 183 144 97 255
0.81 2.68 3.59 207 169 121 255
0.84 2.69 3.60 200 162 115 255
0.08 2.59 3.52 243 209 163 255
0.15 2.60 3.51 233 203 153 255
0.16 2.47 3.69 228 190 141 255
-0.14 2.50 3.60 236 201 156 255
-0.08 2.49 3.62 240 199 155 255
-0.17 2.52 3.58 232 198 153 255
-0.01 2.57 3.53 229 192 147 255
0.59 2.60 3.64 237 200 150 255
0.59 2.57 3.70 229 191 142 255
0.99 2.57 3.71 199 161 112 255
1.00 2.48 3.80 195 155 103 255
0.99 2.56 3.70 199 161 112 255
-2.57 1.04 3.30 228 192 158 255
-2.55 0.98 3.36 239 207 176 255
-2.57 1.06 3.30 227 189 153 255
-0.85 1.43 5.68 139 109 81 255
-0.65 1.55 5.71 163 128 93 255
-0.86 1.43 5.68 138 108 80 255
-1.75 0.40 4.69 195 154 117 255
-1.81 0.33 4.72 207 163 128 255
-1.77 0.41 4.62 217 174 139 255
-1.76 0.42 4.62 211 169 133 255
-1.17 1.34 5.33 117 89 65 255
-1.16 1.37 5.22 155 125 97 255
-1.15 1.37 5.29 132 103 77 255
-1.16 1.35 5.32 118 91 64 255
-2.21 0.75 3.78 244 213 175 255
-2.26 0.66 3.77 246 217 183 255
-2.21 0.64 3.83 245 219 186 255
-2.18 0.83 3.78 250 218 180 255
-2.19 0.88 3.76 243 210 173 255
-2.18 0.63 3.86 246 220 187 255
-2.14 0.71 3.87 242 212 174 255
-2.23 0.85 3.72 247 215 177 255
-2.15 0.58 3.91 235 205 171 255
-1.85 0.23 4.90 202 158 117 255
-1.84 0.24 4.91 196 151 110 255
-1.98 0.10 4.84 220 177 134 255
-1.88 0.15 4.98 217 173 134 255
-1.89 0.20 4.85 214 171 128 255
-1.89 0.23 4.81 206 163 121 255
-1.95 0.14 4.83 217 174 129 255
-2.00 0.03 4.92 213 168 126 255
-1.92 0.12 4.94 220 175 133 255
-0.03 1.79 5.61 182 139 94 255
-0.12 1.80 5.59 171 127 82 255
-0.21 1.85 5.46 217 174 129 255
-0.20 1.83 5.51 205 162 117 255
-0.02 1.81 5.52 183 136 90 255
-0.31 1.97 4.79 189 147 105 255
-0.23 2.03 4.75 203 160 118 255
-0.24 2.00 4.82 184 141 97 255
-0.29 2.03 4.66 176 133 91 255
0.69 2.64 3.83 226 185 134 255
0.65 2.61 3.79 222 182 133 255
0.66 2.62 3.69 231 193 144 255
1.67 1.82 6.66 141 119 96 255
1.82 1.82 6.54 128 97 69 255
1.70 1.81 6.74 115 97 71 255
1.49 1.84 6.61 113 93 68 255
1.60 1.84 6.55 118 93 71 255
1.56 1.84 6.55 115 91 65 255
1.72 1.82 6.61 116 88 65 255
1.47 1.85 6.54 95 71 48 255
0.16 2.22 4.53 191 144 92 255
0.21 2.27 4.54 201 158 107 255
-0.09 2.47 3.65 233 194 150 255
-0.06 2.45 3.69 230 189 145 255
-0.04 2.47 3.66 234 193 147 255
0.10 2.44 3.71 226 183 137 255
-0.63 2.04 4.02 232 187 144 255
-0.67 2.08 3.97 233 190 148 255
-0.69 2.12 3.93 232 190 148 255
-2.46 0.88 3.47 232 198 161 255
-2.54 1.02 3.43 239 206 170 255
-2.48 0.88 3.44 237 203 169 255
0.01 3.92 2.92 227 206 164 255
0.06 3.83 2.90 252 232 187 255
0.00 4.00 2.88 216 197 157 255
-0.01 4.00 2.89 214 195 154 255
-0.00 3.92 2.93 228 207 165 255
0.05 4.02 2.79 222 199 161 255
-0.02 4.05 2.87 213 194 154 255
0.03 3.87 2.92 245 224 181 255
0.47 2.55 3.66 224 187 135 255
0.40 2.54 3.63 224 187 134 255
-0.62 1.77 4.99 156 121 89 255
-0.82 1.89 4.22 217 178 135 255
-0.65 1.96 4.13 212 168 126 255
-0.78 1.94 4.14 221 182 136 255
-2.00 0.51 4.15 230 191 155 255
-1.97 0.46 4.23 228 186 146 255
-1.99 0.55 4.11 234 197 161 255
-1.95 0.59 4.12 217 177 141 255
-1.97 0.52 4.17 230 189 150 255
-1.98 0.51 4.15 230 191 153 255
1.73 1.91 4.73 129 89 48 255
1.54 1.85 4.96 104 70 32 255
1.61 1.85 4.98 116 80 44 255
1.76 1.87 4.92 159 118 72 255
-1.49 0.70 5.10 190 147 105 255
-1.48 0.80 5.04 194 152 112 255
-1.47 0.78 5.14 177 135 95 255
-0.44 1.85 4.92 158 119 79 255
-0.54 1.77 5.01 142 104 68 255
-0.71 1.58 5.52 134 103 74 255
-0.69 1.58 5.56 133 101 71 255
-0.74 1.52 5.56 133 104 74 255
-1.90 0.72 4.04 223 184 146 255
-1.90 0.71 4.06 222 182 146 255
-1.80 0.92 3.96 254 216 177 255
-1.80 0.91 3.97 254 216 177 255
-1.87 0.78 4.02 239 200 161 255
-1.82 0.89 3.97 250 211 172 255
-1.83 0.87 3.97 250 211 172 255
-1.85 0.82 4.00 248 209 170 255
-1.97 0.87 3.89 238 202 165 255
-1.98 0.77 3.93 241 206 170 255
-1.90 0.82 3.95 235 196 157 255
-1.98 0.99 3.83 239 204 167 255
-2.04 1.00 3.79 242 209 173 255
-1.75 1.00 3.94 242 204 167 255
-2.04 0.87 3.86 249 216 181 255
-2.00 0.80 3.91 243 209 174 255
-2.03 0.85 3.87 248 215 180 255
-1.80 0.97 3.93 253 214 175 255
-2.13 1.01 3.74 243 209 174 255
-1.92 0.87 3.92 231 193 156 255
-1.85 0.26 4.83 200 157 116 255
-1.81 0.29 4.84 194 150 112 255
-1.81 0.27 4.92 189 145 107 255
-1.83 0.29 4.80 191 147 110 255
-0.89 1.97 4.06 238 201 162 255
-0.80 1.96 4.10 228 189 146 255
-0.90 1.95 4.09 234 197 156 255
1.68 2.48 2.79 199 167 110 255
1.60 2.48 2.91 194 158 103 255
1.66 2.48 2.83 195 161 103 255
1.54 2.57 2.82 207 175 121 255
1.64 2.46 2.88 192 156 98 255
0.00 2.39 3.76 224 181 136 255
0.02 2.36 3.78 220 178 131 255
0.10 2.42 3.74 231 187 140 255
-0.42 2.13 3.92 227 181 131 255
-0.36 2.20 3.86 243 201 154 255
-0.38 2.16 3.92 224 182 133 255
-0.35 2.17 3.93 225 184 137 255
1.99 1.84 4.94 155 114 63 255
-1.07 1.57 4.78 171 132 98 255
-1.10 1.53 4.83 166 127 94 255
-1.80 0.16 5.24 216 176 142 255
-1.85 0.13 5.14 228 184 148 255
-1.96 0.03 5.03 205 160 118 255
-1.90 0.07 5.11 226 182 143 255
-1.88 0.13 5.05 218 175 135 255
-1.92 0.07 5.06 212 168 128 255
-1.80 0.13 5.31 222 182 147 255
-1.80 0.19 5.14 195 156 121 255
-1.78 0.03 5.74 197 158 125 255
-1.81 0.00 5.68 205 165 129 255
-1.93 -0.16 5.70 194 154 119 255
-1.97 -0.20 5.65 211 171 135 255
-1.80 0.09 5.42 216 173 134 255
-1.92 -0.14 5.67 202 162 126 255
-1.86 -0.06 5.65 221 179 145 255
-1.88 -0.06 5.59 208 165 130 255
0.58 2.57 3.94 203 162 110 255
0.58 2.56 3.78 228 190 140 255
0.59 2.58 3.93 201 160 108 255
0.71 2.66 3.91 214 172 122 255
0.67 2.64 3.96 218 178 128 255
-0.97 1.71 4.67 185 143 103 255
-0.89 1.76 4.60 206 163 121 255
-1.04 1.70 4.58 198 158 117 255
-1.75 0.36 4.79 203 163 128 255
-1.76 0.33 4.88 193 153 120 255
-1.65 0.44 4.90 199 160 122 255
-1.59 0.47 5.23 201 159 117 255
-1.67 0.38 5.12 206 165 130 255
-1.69 0.36 5.09 182 142 106 255
-1.65 0.42 4.97 204 165 128 255
-1.58 0.51 4.96 207 163 125 255
-1.56 0.51 5.21 202 159 119 255
-1.59 0.47 5.21 202 160 120 255
-1.84 1.64 3.58 221 192 158 255
-1.83 1.52 3.63 236 202 166 255
-1.85 1.62 3.57 219 190 157 255
-2.03 1.45 3.55 233 207 174 255
0.95 2.61 3.58 197 161 110 255
0.97 2.59 3.69 202 165 117 255
0.95 2.62 3.60 195 159 109 255
0.53 2.54 3.76 225 187 138 255
0.48 2.52 3.79 213 171 121 255
0.44 2.51 3.90 209 167 114 255
0.47 2.51 3.91 217 177 126 255
-0.89 1.83 4.37 228 185 150 255
-0.87 1.82 4.45 217 175 136 255
-0.48 2.01 4.12 178 137 100 255
-0.32 2.08 4.19 180 141 102 255
-0.38 2.06 4.28 149 113 82 255
-0.42 2.04 4.14 134 96 60 255
-0.32 2.08 4.28 179 139 104 255
-0.52 2.01 4.34 155 125 102 255
-1.66 1.83 3.58 235 201 164 255
-1.72 1.81 3.56 230 196 160 255
-1.76 1.82 3.54 228 196 158 255
0.01 4.26 2.51 206 179 134 255
0.03 4.24 2.49 207 178 134 255
0.03 4.24 2.50 209 180 136 255
0.11 4.12 2.56 227 204 163 255
-0.04 4.33 2.49 211 187 141 255
0.05 2.36 3.79 216 172 125 255
-0.01 2.27 3.91 218 176 126 255
-0.03 2.29 3.86 216 174 126 255
-0.67 1.92 4.47 202 171 143 255
-0.80 1.85 4.47 215 178 136 255
-0.75 1.87 4.50 214 176 141 255
-0.85 1.84 4.40 213 174 135 255
-0.75 1.90 4.41 212 174 136 255
-0.75 1.91 4.38 212 173 135 255
-1.12 1.33 5.48 137 110 84 255
-0.97 1.38 5.72 124 94 67 255
-1.07 1.38 5.49 150 121 93 255
-1.04 1.39 5.53 166 136 108 255
-1.11 1.36 5.44 139 111 84 255
-1.11 1.34 5.47 139 112 84 255
2.33 2.24 2.95 202 160 102 255
2.31 2.24 2.94 211 169 111 255
2.29 2.23 2.82 221 184 124 255
2.28 2.24 2.92 213 173 115 255
2.28 2.24 2.95 209 169 110 255
-2.51 1.11 3.43 234 200 162 255
-2.58 1.15 3.32 220 182 145 255
-2.47 1.18 3.44 234 201 163 255
0.63 2.40 4.37 209 171 124 255
0.62 2.44 4.36 205 168 123 255
0.57 2.38 4.42 220 185 139 255
0.16 3.38 3.15 228 200 150 255
0.02 3.37 3.20 234 207 160 255
0.05 3.31 3.23 224 198 150 255
0.09 3.32 3.21 229 199 155 255
0.07 3.37 3.19 227 199 152 255
0.47 4.07 2.10 216 192 148 255
0.59 4.03 2.11 240 221 178 255
0.44 4.08 2.09 212 188 144 255
-1.21 1.27 5.39 153 125 102 255
-1.26 1.21 5.32 170 138 102 255
-1.25 1.21 5.38 157 125 95 255
-0.97 1.65 4.89 175 135 99 255
-0.95 1.67 4.87 175 135 99 255
-0.99 1.64 4.85 178 138 102 255
1.35 2.30 3.58 189 153 104 255
1.26 2.40 3.46 190 154 104 255
1.29 2.27 3.68 187 154 105 255
1.37 2.37 3.44 204 168 116 255
1.36 2.35 3.48 200 165 115 255
0.56 3.96 2.30 234 208 159 255
0.49 3.97 2.35 236 210 161 255
0.46 4.02 2.29 222 195 149 255
0.46 3.96 2.42 232 206 159 255
0.53 3.94 2.38 234 208 156 255
-1.37 1.07 5.09 173 137 101 255
-1.36 1.10 5.04 171 135 99 255
-1.27 1.28 5.08 196 160 123 255
1.99 1.90 4.52 165 122 71 255
2.02 1.89 4.51 159 116 65 255
1.91 1.91 4.58 169 127 76 255
1.92 1.93 4.49 171 130 79 255
2.04 1.87 4.54 160 117 66 255
1.95 1.88 4.60 167 126 74 255
1.90 1.93 4.51 167 127 76 255
2.06 1.85 4.59 151 107 58 255
-1.53 0.73 4.80 223 179 142 255
-1.54 0.66 4.82 220 176 139 255
-1.52 0.75 4.89 208 163 124 255
-1.52 0.73 4.79 223 179 142 255
-1.53 0.70 4.87 217 173 136 255
-1.28 1.26 5.05 198 160 122 255
-1.41 1.04 4.91 176 137 99 255
-1.40 1.05 4.95 189 151 114 255
-0.76 2.52 3.71 252 222 177 255
-0.62 2.43 3.72 233 193 144 255
-0.70 2.42 3.74 242 207 160 255
-0.75 2.41 3.77 248 218 172 255
0.95 2.72 3.37 213 177 125 255
1.06 2.71 3.28 201 166 108 255
0.97 2.77 3.29 214 181 127 255
1.01 2.79 3.23 230 195 139 255
1.04 2.74 3.26 205 170 112 255
0.97 2.70 3.37 206 171 117 255
-0.59 2.33 3.77 224 180 133 255
-0.58 2.38 3.73 228 185 138 255
-0.71 2.32 3.81 239 202 157 255
-0.93 1.76 4.48 210 167 127 255
-1.94 0.46 4.27 227 185 145 255
-1.91 0.54 4.22 216 177 138 255
-1.75 0.50 4.49 211 171 135 255
-1.78 0.52 4.42 218 178 142 255
-1.96 0.41 4.29 225 183 141 255
-1.82 0.51 4.37 220 181 142 255
-1.56 0.55 4.95 206 162 125 255
-1.52 0.59 5.10 198 154 114 255
-1.53 0.58 5.08 209 165 126 255
-1.21 1.16 5.62 154 129 106 255
-1.18 1.21 5.59 129 103 80 255
-1.11 1.25 5.68 120 93 72 255
-1.11 1.26 5.65 127 101 78 255
-1.02 1.33 5.73 147 118 93 255
-1.00 1.34 5.73 141 111 85 255
-0.14 2.27 3.91 234 194 150 255
-0.10 2.24 3.96 208 167 121 255
-1.25 1.31 5.08 194 160 123 255
-1.22 1.30 5.21 163 134 99 255
-1.24 1.28 5.21 178 147 112 255
-1.23 1.30 5.21 164 134 99 255
-0.40 2.81 3.45 248 221 170 255
-0.32 2.89 3.41 249 219 165 255
-0.30 2.79 3.43 248 221 172 255
-0.52 2.69 3.50 227 204 158 255
0.49 2.65 3.48 239 203 151 255
0.35 2.66 3.45 232 198 146 255
0.48 2.63 3.51 240 204 152 255
-1.41 1.08 4.78 170 130 94 255
-1.31 1.25 4.80 193 157 121 255
-1.32 1.22 4.84 193 155 120 255
-1.32 1.22 4.89 200 161 125 255
-1.33 1.20 4.85 182 144 108 255
1.24 3.37 2.55 245 214 157 255
1.28 3.35 2.53 252 223 163 255
1.15 3.45 2.56 243 214 156 255
0.97 3.32 2.84 238 212 154 255
0.99 3.35 2.80 231 205 148 255
1.03 3.36 2.75 245 220 163 255
1.26 3.43 2.48 253 224 163 255
1.15 3.32 2.67 240 214 153 255
1.05 3.37 2.72 248 225 169 255
1.26 3.43 2.48 252 223 163 255
1.00 3.42 2.72 241 215 158 255
